-0.04173020273447037 0.23632144927978516 -0.034688081592321396
-0.04173020273447037 -0.5828152298927307 -0.039033178240060806
-0.02522347681224346 -0.758851945400238 0.18981494009494781
-0.04173020273447037 0.6228904128074646 0.2306952178478241
-0.04173020273447037 -0.7396748065948486 0.08012236654758453
-0.04173020273447037 -0.18645226955413818 0.161311537027359
0.041324928402900696 -0.875604510307312 0.006149906665086746
0.007422597147524357 0.6428202390670776 -0.022512972354888916
-0.028612183406949043 0.46230849623680115 0.14313435554504395
0.041324928402900696 -0.5190675854682922 -0.05950474366545677
-0.04173020273447037 0.2219817042350769 -0.25692883133888245
-0.04173020273447037 0.38259708881378174 -0.2999592125415802
-0.04173020273447037 0.2561035454273224 0.12607604265213013
-0.04173020273447037 0.6482406258583069 0.0733923465013504
-0.04173020273447037 0.47657448053359985 -0.3290001153945923
-0.04173020273447037 0.3436809182167053 -0.11175596714019775
-0.04173020273447037 0.5169126391410828 0.3503919541835785
-0.032068073749542236 -0.5700106024742126 0.18981494009494781
0.041324928402900696 0.6384896636009216 0.0512392483651638
-0.04173020273447037 -0.6278733611106873 -0.003614598885178566
-0.04173020273447037 0.5749830007553101 0.11554885655641556
-0.028826666995882988 -0.053725093603134155 0.23841673135757446
-0.04173020273447037 -0.6098935604095459 0.181522935628891
-0.04173020273447037 0.32090118527412415 -0.10057183355093002
-0.04173020273447037 0.31293344497680664 -0.35557565093040466
0.041324928402900696 -0.8921151161193848 0.0818294808268547
0.041324928402900696 0.56751549243927 -0.18153423070907593
-0.04173020273447037 0.2999098002910614 0.08271928131580353
0.041324928402900696 0.14190439879894257 -0.23896536231040955
0.041324928402900696 0.3923330008983612 -0.07645691186189651
0.041324928402900696 -0.18162226676940918 -0.0869603231549263
-0.04173020273447037 0.23526348173618317 0.17964984476566315
0.041324928402900696 0.3662030100822449 -0.05686550214886665
-0.041403885930776596 0.3808360695838928 -0.4221743643283844
-0.04173020273447037 -0.5743018984794617 -0.12964509427547455
0.041324928402900696 -0.8305326700210571 0.14934898912906647
-0.04173020273447037 0.2533596456050873 0.32065171003341675
-0.021654676645994186 -0.02135344408452511 0.2801567018032074
-0.03135336935520172 0.37871626019477844 -0.11703801155090332
0.041324928402900696 0.45908501744270325 -0.26724040508270264
-0.04173020273447037 0.37398916482925415 -0.05741998180747032
-0.04173020273447037 0.5206983089447021 0.34088459610939026
0.041324928402900696 -0.6822007298469543 -0.15704631805419922
0.005241507198661566 0.5908244848251343 -0.1451989859342575
0.041324928402900696 0.3750019371509552 0.03191189467906952
-0.04173020273447037 -0.015847528353333473 0.14725923538208008
0.041324928402900696 0.030283421277999878 -0.04566458985209465
0.013324861414730549 -0.9030628800392151 0.1621682494878769
-0.04173020273447037 0.3772561848163605 0.1813054382801056
0.041324928402900696 0.29135191440582275 -0.19813565909862518
0.041324928402900696 -0.7401582598686218 0.09000476449728012
0.03238087520003319 0.37871626019477844 0.16717801988124847
0.041324928402900696 -0.17616264522075653 -0.01919442228972912
0.019755404442548752 0.47460100054740906 -0.12955164909362793
0.041324928402900696 0.22089679539203644 0.0447341687977314
0.04095333442091942 0.3074151873588562 -0.42990490794181824
0.03293715417385101 0.4641880691051483 -0.12617582082748413
0.041324928402900696 0.29895907640457153 -0.09314092248678207
0.041324928402900696 -0.5275413393974304 -0.04537639021873474
-0.04173020273447037 -0.6233989596366882 -0.08881207555532455
-0.04070667922496796 -0.7952587008476257 0.18981494009494781
0.041324928402900696 -0.8702410459518433 -0.042502861469984055
-0.04173020273447037 0.33139100670814514 0.3099350035190582
0.041324928402900696 0.45198002457618713 0.12598519027233124
-0.04173020273447037 0.07956449687480927 0.011430797167122364
0.041324928402900696 -0.7834668755531311 -0.1680917739868164
0.041324928402900696 -0.9878290891647339 0.029101843014359474
0.041324928402900696 -0.7663800716400146 -0.035220250487327576
-0.04173020273447037 0.5833991765975952 -0.17210136353969574
0.041324928402900696 -0.7347819209098816 -0.012409944087266922
-0.04173020273447037 -0.6428940892219543 0.13370096683502197
0.041324928402900696 0.43640005588531494 -0.39142394065856934
0.03438890725374222 0.569300651550293 -0.14444683492183685
0.006053283344954252 0.4161156415939331 0.1179603785276413
-0.04173020273447037 0.3678404688835144 0.04698657616972923
0.041324928402900696 -0.33012494444847107 0.06689883768558502
-0.04173020273447037 -0.35659259557724 -0.15352022647857666
0.041324928402900696 -0.369691401720047 -0.12678112089633942
0.030075253918766975 0.42503854632377625 0.406696081161499
-0.01659516990184784 0.44988659024238586 0.13822387158870697
0.041324928402900696 0.6671806573867798 0.1780359148979187
-0.04173020273447037 0.07641797512769699 0.09461812674999237
0.041324928402900696 -0.7673442363739014 0.023547248914837837
0.041324928402900696 0.05640310049057007 -0.2575361132621765
-0.04173020273447037 0.2293470948934555 -0.028972750529646873
-0.04173020273447037 -0.0337105318903923 0.23634062707424164
-0.04173020273447037 -0.9435279369354248 0.065585657954216
0.041324928402900696 0.30185461044311523 0.3424018323421478
0.041324928402900696 0.23362785577774048 -0.21268786489963531
0.041324928402900696 -0.8309336304664612 0.007175593636929989
0.024864042177796364 0.3476365804672241 -0.4272176921367645
0.041324928402900696 0.4109848737716675 0.08971001207828522
0.041324928402900696 -0.6129838824272156 0.13773560523986816
0.041324928402900696 0.6199320554733276 -0.2729177176952362
0.041324928402900696 0.17866140604019165 0.2843396067619324
0.041324928402900696 -0.6535760164260864 0.08909766376018524
-0.04173020273447037 0.05547914281487465 -0.057867519557476044
2.691963891265914e-05 -0.065987728536129 0.21935875713825226
0.041324928402900696 -0.40311500430107117 0.18276835978031158
0.041324928402900696 0.5981031656265259 0.28202155232429504
-0.03009960986673832 0.586853563785553 0.31478995084762573
0.01892402395606041 -0.7207992076873779 -0.19431504607200623
0.036599889397621155 -0.34521421790122986 0.18981494009494781
0.03955603018403053 -0.2810414433479309 0.18981494009494781
-0.04173020273447037 0.2665283977985382 -0.36896878480911255
-0.04173020273447037 -0.3122828006744385 -0.010302110575139523
-0.04173020273447037 0.17312055826187134 -0.16811321675777435
-0.04173020273447037 0.325243204832077 0.013171182945370674
-0.03834002465009689 0.5335516929626465 -0.1915295124053955
0.041324928402900696 0.34402287006378174 -0.40594619512557983
0.041324928402900696 -0.2910509705543518 0.009859700687229633
-0.030199438333511353 -0.11564693599939346 0.18981494009494781
0.041324928402900696 -0.08989600837230682 -0.05857311934232712
0.020266912877559662 0.6441588997840881 -0.001780287828296423
0.041324928402900696 0.005157401319593191 -0.25490638613700867
-0.04173020273447037 0.13782957196235657 -0.2848656177520752
0.041324928402900696 -0.7670170664787292 -0.018742315471172333
0.03685642406344414 -0.9999989867210388 0.019404754042625427
-0.036988820880651474 -0.4993512034416199 -0.19431504607200623
-0.013177566230297089 -0.593143105506897 0.18981494009494781
0.041324928402900696 0.41166770458221436 -0.4106510579586029
0.041324928402900696 -0.05132926255464554 -0.18740996718406677
0.041324928402900696 0.5909428000450134 -0.21270184218883514
0.02361205220222473 0.6926220655441284 -0.17149914801120758
-0.04173020273447037 -0.47769778966903687 0.14471426606178284
-0.04173020273447037 -0.41567572951316833 -0.059847019612789154
0.03225097432732582 0.4128721058368683 0.41020870208740234
0.016817204654216766 -0.37862300872802734 0.18981494009494781
0.041324928402900696 0.6017111539840698 -0.16996639966964722
-0.03284784406423569 -0.3833200931549072 -0.19431504607200623
0.041324928402900696 -0.1611361801624298 -0.026267265900969505
-0.04173020273447037 0.13328245282173157 -0.07412140816450119
-0.04173020273447037 0.1648988276720047 0.06178409233689308
0.041324928402900696 -0.7109134793281555 0.04363047704100609
0.0008365464746020734 0.5484991073608398 0.14666789770126343
0.041324928402900696 -0.17595195770263672 0.136387899518013
-0.02167891152203083 0.6441657543182373 -0.0038437936455011368
0.041324928402900696 0.3389199674129486 -0.19550766050815582
-0.03788825497031212 -0.11579378694295883 -0.19431504607200623
-0.017437292262911797 0.6958276629447937 -0.16367113590240479
-0.04173020273447037 0.6471080183982849 -0.1346753090620041
-0.021561788395047188 0.37871626019477844 -0.18271200358867645
0.041324928402900696 -0.6435670852661133 0.12356171011924744
0.041324928402900696 0.49931973218917847 -0.31841275095939636
0.041324928402900696 0.3691977858543396 0.10724637657403946
0.041324928402900696 0.6897033452987671 -0.11875971406698227
0.041324928402900696 0.709003210067749 0.09323077648878098
-0.04173020273447037 -0.8440479040145874 0.09818091988563538
0.041324928402900696 0.6820148229598999 0.15867893397808075
-0.005330831743776798 0.6148448586463928 -0.08565989881753922
0.041324928402900696 -0.2081465721130371 -0.13728582859039307
-0.03487072512507439 0.27634915709495544 -0.42927682399749756
0.041324928402900696 0.29806265234947205 -0.36718571186065674
-0.005272185895591974 0.2201813906431198 -0.4224264323711395
-0.04173020273447037 0.1779635101556778 -0.0481901615858078
-0.04173020273447037 -0.6552661061286926 -0.03423571214079857
0.041324928402900696 0.4334510266780853 -0.3037967085838318
-0.01131401490420103 -0.2542898952960968 -0.19431504607200623
0.041324928402900696 0.3486930727958679 -0.4032609760761261
0.041324928402900696 0.25509002804756165 -0.09379979968070984
-0.04173020273447037 -0.563928484916687 0.030776839703321457
-0.04173020273447037 -0.4556075930595398 -0.034456606954336166
0.041324928402900696 -0.7694233059883118 0.029470432549715042
-0.0025423236656934023 0.5654529929161072 0.119175486266613
-0.04173020273447037 0.20737092196941376 -0.38665950298309326
0.041324928402900696 -0.7084910869598389 0.14874598383903503
0.041324928402900696 0.216628298163414 -0.13194602727890015
0.041324928402900696 -0.024935802444815636 -0.15697069466114044
0.041324928402900696 0.5315879583358765 0.3406173288822174
0.041324928402900696 0.038087937980890274 0.04276168718934059
0.03849388286471367 0.4069690406322479 -0.11443828791379929
-0.04173020273447037 0.1554788202047348 0.20021310448646545
-0.04173020273447037 0.3695058822631836 0.18141323328018188
0.041324928402900696 -0.39895811676979065 0.017865927889943123
0.041324928402900696 -0.005887140519917011 0.19313488900661469
0.041324928402900696 0.2229776829481125 -0.13171455264091492
0.024637626484036446 0.5072331428527832 -0.376241534948349
0.041324928402900696 -0.5460518002510071 0.11438462883234024
0.041324928402900696 -0.35804852843284607 -0.05985129624605179
0.010425892658531666 0.7122225761413574 -0.11552317440509796
-0.04173020273447037 0.1515042781829834 -0.04313329979777336
0.041324928402900696 -0.2862742841243744 -0.08038871735334396
-0.04173020273447037 0.5093549489974976 -0.3391454517841339
0.041324928402900696 -0.5836430191993713 -0.15022973716259003
-0.003779648570343852 0.3797358274459839 0.012823110446333885
0.041324928402900696 -0.7164008021354675 -0.18754033744335175
0.041324928402900696 0.13416241109371185 -0.14901936054229736
-0.04173020273447037 0.1522827297449112 -0.19023160636425018
-0.03680999577045441 -0.07762058079242706 0.19883833825588226
0.041324928402900696 0.1778923124074936 -0.2524486184120178
0.041324928402900696 0.3939047157764435 0.33185362815856934
0.041324928402900696 -0.5885598063468933 -0.16792051494121552
-0.04173020273447037 0.645085871219635 -0.08905155956745148
0.03782288357615471 -0.14759811758995056 -0.19431504607200623
-0.018782956525683403 0.6429025530815125 -0.020685210824012756
0.041324928402900696 -0.09353829175233841 -0.09068423509597778
0.040173567831516266 -0.40310612320899963 0.18981494009494781
0.041324928402900696 -0.6159734129905701 -0.06546242535114288
-0.04173020273447037 0.11029591411352158 -0.196574866771698
-0.04173020273447037 -0.054322436451911926 0.11232501268386841
0.041324928402900696 -0.8301185965538025 0.0740845799446106
-0.04173020273447037 -0.13633368909358978 -0.03177572414278984
-0.04173020273447037 0.16201527416706085 0.21079979836940765
-0.01888786070048809 -0.7832330465316772 0.18981494009494781
-0.04173020273447037 0.39851176738739014 -0.3269043564796448
0.007315860595554113 0.7088964581489563 -0.12705741822719574
-0.04173020273447037 -0.8159958124160767 -0.11663094162940979
-0.04173020273447037 0.3816499412059784 -0.3226146996021271
-0.041317928582429886 0.6200731992721558 0.28112924098968506
-0.04173020273447037 -0.6429611444473267 -0.11320757120847702
-0.04173020273447037 -0.34770360589027405 -0.025363778695464134
-0.04173020273447037 -0.5558119416236877 -0.1675863415002823
-0.04173020273447037 0.6325032711029053 0.07139331102371216
0.041324928402900696 0.3098782002925873 0.01218347530812025
-0.02634328044950962 0.3804596960544586 0.017617173492908478
-0.037177275866270065 -0.9437964558601379 -0.042879618704319
-0.027391068637371063 -0.02574756182730198 0.2751404047012329
-0.04173020273447037 -0.5644671320915222 0.10849422961473465
0.041324928402900696 0.6525102853775024 -0.22397291660308838
-0.00875661987811327 0.38946184515953064 -0.4204426407814026
0.012183609418570995 -0.02026275545358658 -0.28592929244041443
-0.04173020273447037 0.679966390132904 0.12052632123231888
-0.04173020273447037 0.6341532468795776 -0.07172466814517975
0.03491610288619995 0.1508534699678421 -0.4031401574611664
-0.04173020273447037 0.09731074422597885 0.34891948103904724
0.041324928402900696 -0.4155943989753723 -0.12008357048034668
0.041324928402900696 0.2423478662967682 0.391686350107193
0.041324928402900696 0.46220868825912476 0.35045325756073
0.041324928402900696 -0.6376362442970276 0.055351439863443375
-0.00318724662065506 0.37871626019477844 0.12739834189414978
-0.04173020273447037 -0.0007963526877574623 0.17059047520160675
-0.004591931123286486 -0.03843146190047264 -0.26398149132728577
0.041324928402900696 0.03782631456851959 0.2793586254119873
-0.04173020273447037 0.07280868291854858 -0.35036078095436096
-0.04173020273447037 0.14722852408885956 0.22668011486530304
0.041324928402900696 -0.004198118578642607 -0.2669585645198822
0.00649481825530529 -0.41337165236473083 -0.19431504607200623
-0.04173020273447037 -0.5248104333877563 -0.1695941686630249
-0.04173020273447037 0.0933777391910553 -0.015427935868501663
-0.01889842562377453 0.07077015936374664 -0.36337611079216003
-0.04173020273447037 -0.5086511373519897 -0.14270175993442535
-0.04173020273447037 0.27309802174568176 -0.2485465407371521
0.010975563898682594 0.09424145519733429 -0.3772910535335541
-0.04173020273447037 0.2134675681591034 0.3813621997833252
0.041324928402900696 -0.7462484240531921 0.18473409116268158
-0.04173020273447037 0.19285181164741516 -0.2238694727420807
0.016683904454112053 -0.07735670357942581 -0.2039317488670349
0.041324928402900696 -0.3143056035041809 -0.09118861705064774
0.041324928402900696 0.37635841965675354 0.1626783162355423
0.041324928402900696 -0.08290677517652512 -0.18792223930358887
-0.020011087879538536 0.37871626019477844 -0.2098999172449112
-0.04173020273447037 -0.6679553985595703 -0.19364391267299652
-0.0010667465394362807 0.5083336234092712 -0.1350180208683014
-0.04173020273447037 0.5463240146636963 0.2823718786239624
-0.011195218190550804 0.5475801229476929 0.17854668200016022
-0.04173020273447037 -0.7858736515045166 -0.04458746686577797
0.023698076605796814 0.19911570847034454 0.41340401768684387
-0.04173020273447037 -0.2237858772277832 0.03336678445339203
-0.04173020273447037 0.11992648243904114 -0.2576557993888855
0.041324928402900696 -0.0817202478647232 0.08870180696249008
0.041324928402900696 0.07582851499319077 -0.179136261343956
-0.041593316942453384 0.2394738793373108 0.421100378036499
0.041324928402900696 -0.1977369636297226 -0.17819464206695557
-0.04173020273447037 0.17976519465446472 -0.25802019238471985
-0.04173020273447037 -0.10643648356199265 0.09253299981355667
-0.04173020273447037 0.20667541027069092 -0.36451050639152527
0.041324928402900696 -0.8481828570365906 -0.13797849416732788
-0.04173020273447037 -0.11596915125846863 0.08888086676597595
0.041324928402900696 0.3528990149497986 -0.2901321351528168
-0.04173020273447037 0.34052574634552 -0.17137391865253448
0.016527146100997925 -0.3841783106327057 -0.19431504607200623
-0.04173020273447037 0.6484455466270447 -0.02111346647143364
-0.04173020273447037 0.1407831758260727 -0.19874253869056702
-0.04173020273447037 -0.6786280870437622 -0.08680682629346848
-0.04173020273447037 -0.1002151295542717 0.12980706989765167
0.041324928402900696 -0.7614836096763611 -0.12370457500219345
0.041324928402900696 -0.05666404962539673 0.16528083384037018
0.041324928402900696 0.5727009177207947 0.3095080852508545
-0.04173020273447037 0.3265196681022644 0.38411834836006165
0.041324928402900696 0.3569610118865967 -0.18072813749313354
-0.04173020273447037 -0.6250857710838318 -0.09362410008907318
0.041324928402900696 0.24443082511425018 0.36659330129623413
-0.017909809947013855 0.7087396383285522 0.12289440631866455
0.037561558187007904 -0.8571811318397522 -0.12949493527412415
0.041324928402900696 -0.11852236837148666 0.04560435190796852
0.041324928402900696 0.67396479845047 -0.10636765509843826
-0.04173020273447037 -0.5117009282112122 -0.06486812978982925
0.041324928402900696 0.34475940465927124 -0.18497920036315918
-0.035525351762771606 0.3835355341434479 -0.21500487625598907
-0.04173020273447037 -0.8074469566345215 -0.14303135871887207
0.041324928402900696 0.3422768712043762 0.030415643006563187
0.041324928402900696 0.35263535380363464 0.37313470244407654
-0.04173020273447037 0.3119020462036133 -0.4160352647304535
0.041324928402900696 -0.7855626940727234 0.11066056787967682
-0.03165479376912117 -0.9771898984909058 -0.009486163035035133
-0.04173020273447037 -0.1864752322435379 0.04552691429853439
0.041324928402900696 0.41054680943489075 -0.25904580950737
-0.032122645527124405 0.5148361325263977 -0.37196484208106995
0.041324928402900696 -0.5060920119285583 -0.09282150864601135
0.041324928402900696 0.30853012204170227 -0.29477909207344055
0.025286434218287468 0.40803125500679016 0.08074665069580078
-0.04173020273447037 -0.47805270552635193 -0.05397981032729149
-0.012259635142982006 0.6413460373878479 -0.0303342267870903
0.041324928402900696 0.03820591792464256 -0.0904591828584671
0.02054588496685028 0.2370082437992096 -0.4252767562866211
-0.020362170413136482 -0.9192687273025513 0.14596246182918549
-0.04173020273447037 -0.9785922169685364 0.008819174952805042
0.041324928402900696 -0.0006628087139688432 0.16351965069770813
0.03916991502046585 0.3050490617752075 -0.42990642786026
-0.04173020273447037 -0.807749330997467 0.06542767584323883
-0.04173020273447037 -0.5231026411056519 -0.15537287294864655
-0.04173020273447037 -0.7505481243133545 0.16652709245681763
0.041324928402900696 0.02501964382827282 -0.19831478595733643
-0.04173020273447037 0.14794448018074036 0.2387266755104065
-0.04173020273447037 0.11716467142105103 0.31907305121421814
0.041324928402900696 0.01869218796491623 0.2274046242237091
-0.04173020273447037 0.11650209873914719 0.007323426194489002
-0.04173020273447037 -0.08852342516183853 0.07805117219686508
-0.04173020273447037 -0.1091141328215599 -0.007820463739335537
-0.04173020273447037 -0.20274002850055695 0.005030494183301926
-0.04173020273447037 0.21261443197727203 0.2157905399799347
0.041324928402900696 0.08370202034711838 -0.07384015619754791
-0.04173020273447037 0.6679320335388184 0.06166897341609001
-0.04173020273447037 0.7048644423484802 -0.0997529849410057
-0.04173020273447037 0.5671517848968506 -0.17496146261692047
0.041324928402900696 -0.9496726989746094 0.06576031446456909
-0.04173020273447037 0.2804452180862427 -0.12529870867729187
0.041324928402900696 -0.26858827471733093 0.1658499389886856
-0.04173020273447037 0.5214495062828064 0.13297972083091736
0.041324928402900696 -0.05359918996691704 -0.17980417609214783
-0.04173020273447037 -0.54892498254776 0.017729714512825012
-0.04173020273447037 -0.7686324715614319 0.17059063911437988
0.041324928402900696 -0.17951035499572754 -0.009091021493077278
-0.04168149083852768 0.4077245593070984 -0.084666408598423
-0.04173020273447037 0.34260356426239014 0.01660737954080105
0.041324928402900696 -0.5368848443031311 0.024589454755187035
-0.04173020273447037 -0.8039183020591736 -0.017266450449824333
-0.04173020273447037 -0.8451129198074341 -0.037052515894174576
0.041324928402900696 0.09224193543195724 -0.025870652869343758
0.041324928402900696 -0.6059479117393494 0.022361591458320618
0.041324928402900696 0.614853024482727 0.2495444416999817
-0.04173020273447037 -0.47245559096336365 0.04343383386731148
0.0327862948179245 -0.7628851532936096 0.18981494009494781
0.04028940200805664 -0.04474715515971184 0.2510624825954437
-0.017503049224615097 0.04600437730550766 -0.346521258354187
0.041324928402900696 -0.02637607231736183 -0.11791415512561798
-0.04173020273447037 0.010125971399247646 0.024846184998750687
-0.04173020273447037 0.2859693467617035 -0.01472205389291048
-0.005355183035135269 0.566639244556427 0.14106684923171997
-0.04173020273447037 0.7004410624504089 0.04304763674736023
0.041324928402900696 0.4461710751056671 0.1336497664451599
0.041324928402900696 -0.000160751718794927 0.20561020076274872
-0.04173020273447037 -0.7980944514274597 0.029312871396541595
-0.04173020273447037 -0.07074294984340668 -0.190914586186409
0.03790435567498207 0.6246259808540344 0.2759576737880707
-0.04173020273447037 0.18563517928123474 0.16252350807189941
0.041324928402900696 0.2800694704055786 -0.3517352044582367
0.01641399972140789 -0.4666406512260437 0.18981494009494781
0.041324928402900696 0.010662761516869068 -0.2770807147026062
-0.04173020273447037 -0.6224609613418579 -0.1318625807762146
-0.04173020273447037 0.1954738050699234 0.14135614037513733
0.018462713807821274 0.714617908000946 0.10172741115093231
0.041324928402900696 0.3174903094768524 0.39449813961982727
-0.009219827130436897 0.5129243731498718 -0.37307459115982056
0.041324928402900696 0.17169027030467987 0.05979634448885918
-0.04173020273447037 -0.7100770473480225 0.07845824211835861
-0.04173020273447037 -0.2254256308078766 0.029659852385520935
-0.04173020273447037 -0.6230455040931702 0.08861008286476135
-0.04173020273447037 -0.5034765601158142 -0.12052052468061447
-0.04173020273447037 0.3906369209289551 -0.09223568439483643
-0.04173020273447037 -0.12692728638648987 0.025874629616737366
0.026488715782761574 -0.30914777517318726 0.18981494009494781
-0.04173020273447037 -0.2046395093202591 0.03420104458928108
-0.04173020273447037 -0.3888568580150604 -0.04124706983566284
0.041324928402900696 -0.6844814419746399 0.08669465780258179
-0.02050090953707695 -0.05430271476507187 0.23752924799919128
0.0381980799138546 0.5338594913482666 -0.19135282933712006
0.041324928402900696 -0.2206932157278061 -0.15275578200817108
-0.04173020273447037 0.2234819531440735 -0.024160584434866905
-0.02896294742822647 0.7045595049858093 -0.14042769372463226
-0.04173020273447037 -0.5485479235649109 -0.12024454027414322
-0.04173020273447037 0.4961611032485962 -0.23445717990398407
-0.04173020273447037 0.30071619153022766 0.024937452748417854
0.041324928402900696 0.31076085567474365 -0.2517428994178772
0.029124263674020767 0.04536905139684677 0.3415221571922302
0.041324928402900696 -0.05505981668829918 0.05146346241235733
0.041324928402900696 0.1090279221534729 0.326745867729187
0.041324928402900696 0.2418333739042282 0.05118664354085922
0.041324928402900696 -0.4557512700557709 0.12512987852096558
0.041324928402900696 0.2542169988155365 0.3458704650402069
-0.04173020273447037 0.5848784446716309 0.154812291264534
0.041324928402900696 -0.32671433687210083 -0.00019628804875537753
-0.04173020273447037 0.05544678494334221 0.028180887922644615
-0.04173020273447037 0.2903212308883667 -0.1093461811542511
-0.009432496502995491 0.5735366940498352 -0.16269445419311523
0.041324928402900696 0.5983166098594666 -0.25704413652420044
0.009657752700150013 0.3925766348838806 0.2121361494064331
0.041324928402900696 -0.4394962787628174 0.03404058888554573
-0.04173020273447037 0.6229167580604553 0.18895530700683594
-0.04173020273447037 0.2222517430782318 -0.06550808250904083
0.041324928402900696 0.18949954211711884 -0.23422110080718994
0.038579151034355164 -0.1148291602730751 -0.19431504607200623
-0.024402763694524765 -0.9999989867210388 0.04757526144385338
-0.017912548035383224 0.42582187056541443 -0.21951523423194885
-0.04173020273447037 -0.6288217902183533 0.17647939920425415
-0.04173020273447037 -0.004576295148581266 0.10059179365634918
-0.015180214308202267 0.6747304797172546 -0.20808693766593933
0.02604287676513195 0.4946700632572174 0.2041700780391693
-0.04173020273447037 0.12095459550619125 -0.30547744035720825
-0.04173020273447037 -0.06637853384017944 -0.06567621976137161
0.041324928402900696 -0.6037732362747192 3.2069001463241875e-05
0.02133896015584469 -0.6778644323348999 0.18981494009494781
-0.04173020273447037 -0.29540106654167175 0.06277488172054291
-0.04173020273447037 -0.15811417996883392 0.06253370642662048
0.041324928402900696 -0.4022040367126465 0.0011031903559342027
-0.03567005693912506 -0.36252668499946594 -0.19431504607200623
-0.04173020273447037 0.31531012058258057 -0.32212167978286743
-0.005833880044519901 0.3006300628185272 0.42541003227233887
-0.04173020273447037 -0.6617000699043274 0.09462550282478333
-0.04173020273447037 0.4937001168727875 -0.26000073552131653
0.008128766901791096 0.4985162019729614 -0.38097256422042847
-0.04173020273447037 -0.36312785744667053 -0.1881415992975235
0.006245041731745005 0.41587379574775696 0.4093748927116394
0.03172321245074272 -0.4801982641220093 0.18981494009494781
-0.04173020273447037 0.590572714805603 0.2980881333351135
-0.04173020273447037 0.6595582365989685 0.18790501356124878
0.025003906339406967 0.38553714752197266 -0.04364180192351341
-0.04173020273447037 -0.9166023135185242 -0.02287951111793518
0.015859318897128105 0.7108466625213623 0.11592257767915726
0.041324928402900696 -0.7499173879623413 -0.15713819861412048
0.041324928402900696 -0.7123560905456543 -0.11084765195846558
-0.04173020273447037 -0.5645032525062561 0.1653704196214676
-0.04173020273447037 0.29237204790115356 -0.04942619800567627
-0.0406954288482666 0.6136907339096069 -0.08708927035331726
-0.0015376373194158077 0.6247636675834656 0.27578404545783997
-0.04173020273447037 -0.1477489173412323 -0.01010044477880001
0.041324928402900696 -0.8178460001945496 0.03077607974410057
-0.04173020273447037 -0.6173742413520813 -0.02989470213651657
-0.018100133165717125 0.44538944959640503 0.39989006519317627
0.041324928402900696 0.6362569332122803 -0.12640532851219177
-0.04173020273447037 0.3775814175605774 0.3671893775463104
0.041324928402900696 0.3089560568332672 0.1118922308087349
0.041324928402900696 -0.9184811115264893 0.1365223079919815
0.041324928402900696 -0.5621272325515747 0.08471310138702393
0.041324928402900696 0.07617298513650894 -0.038913242518901825
-0.04173020273447037 -0.7436195015907288 -0.128851056098938
0.041324928402900696 0.14522726833820343 0.20929108560085297
0.021626753732562065 0.4958837628364563 -0.15500599145889282
0.041324928402900696 0.20494596660137177 0.03606322780251503
0.041324928402900696 -0.9236769676208496 0.09326088428497314
-0.04173020273447037 -0.26431572437286377 -0.05828910320997238
-0.008888054639101028 -0.15354327857494354 -0.19431504607200623
0.041324928402900696 0.2815645635128021 -0.14961203932762146
0.041324928402900696 0.558523952960968 -0.18779237568378448
0.0027858975809067488 -0.05080138146877289 -0.24723178148269653
-0.03956602141261101 -0.4169793426990509 0.18981494009494781
-0.04173020273447037 0.23383520543575287 -0.28708434104919434
-0.01900656521320343 0.7235713005065918 -0.06036712974309921
-0.01991848647594452 0.37871626019477844 0.08544708788394928
0.041324928402900696 -0.04213881120085716 0.2443304806947708
0.041324928402900696 0.6470801830291748 0.15410467982292175
-0.04173020273447037 0.5628713369369507 -0.33872222900390625
0.041324928402900696 -0.6768108010292053 -0.15103891491889954
0.041324928402900696 -0.8916964530944824 0.1002492904663086
0.041324928402900696 -0.7865387797355652 -0.0705965906381607
0.041324928402900696 0.35869741439819336 0.3718107044696808
0.024865256622433662 0.37871626019477844 0.19125846028327942
-0.04173020273447037 0.1406952142715454 -0.20014376938343048
-0.04173020273447037 -0.8155938982963562 0.05196056514978409
-0.04173020273447037 0.03172856196761131 -0.26480141282081604
-0.04173020273447037 -0.31580421328544617 -0.11510664969682693
0.041324928402900696 -0.7245606780052185 0.15365183353424072
-0.04173020273447037 0.23155567049980164 0.1701054573059082
0.041324928402900696 0.3995727300643921 0.09478926658630371
0.028016550466418266 0.17329750955104828 0.40627744793891907
-0.04173020273447037 0.30261513590812683 0.24066586792469025
-0.035835202783346176 -0.31714606285095215 0.18981494009494781
0.041324928402900696 0.66904616355896 -0.016586583107709885
0.041324928402900696 0.6609640717506409 0.08645206689834595
-0.03271446377038956 0.3876514732837677 -0.04963381588459015
-0.04173020273447037 0.3491135537624359 0.05776067078113556
0.041324928402900696 0.49538901448249817 0.2346470057964325
-0.024515418335795403 0.5394237041473389 -0.1881396621465683
-0.04173020273447037 0.5384384989738464 0.25661081075668335
0.041324928402900696 -0.29518046975135803 -0.1728215217590332
-0.009231111966073513 0.46089309453964233 -0.12494081258773804
0.041324928402900696 0.1958191692829132 -0.0326569639146328
0.041324928402900696 0.5592634081840515 -0.31976184248924255
0.041324928402900696 0.23265038430690765 0.4025769829750061
-0.04173020273447037 -0.12820449471473694 -0.019535480067133904
-0.04173020273447037 0.23994696140289307 0.040494654327631
-0.00014173345698509365 -0.16586178541183472 0.18981494009494781
0.041324928402900696 0.3087174594402313 0.4209844470024109
0.041324928402900696 -0.05606868490576744 0.07073354721069336
-0.03419242799282074 0.20766043663024902 -0.419894814491272
-0.04173020273447037 0.5276080369949341 -0.2484605610370636
-0.04173020273447037 0.05685869976878166 0.13195542991161346
-0.04173020273447037 -0.3522821366786957 0.1472969800233841
-0.04173020273447037 -0.51577228307724 -0.10610394924879074
-0.04173020273447037 0.48977190256118774 0.341143399477005
-0.028694672510027885 -0.47759148478507996 -0.19431504607200623
-0.024676058441400528 0.37908053398132324 0.006741706747561693
-0.017411112785339355 -0.9999989867210388 0.027279403060674667
-0.04173020273447037 0.10915841162204742 -0.1094147190451622
0.0231985654681921 0.41296303272247314 -0.11973210424184799
0.005523426923900843 -0.34308329224586487 -0.19431504607200623
0.041324928402900696 0.07335866242647171 0.03149225190281868
0.041324928402900696 0.22688381373882294 -0.3820401430130005
0.017847619950771332 0.535743236541748 0.35451751947402954
0.041324928402900696 -0.5315551161766052 0.1848449409008026
-0.04173020273447037 -0.21551960706710815 -0.14313654601573944
0.03606468439102173 0.39702683687210083 0.09985176473855972
0.041324928402900696 -0.9905568361282349 0.04193764925003052
-0.04173020273447037 -0.399044930934906 -0.08296386152505875
-0.04173020273447037 -0.46936213970184326 0.16355906426906586
-0.011006360873579979 0.24220502376556396 0.42153629660606384
-0.04173020273447037 -0.5162932276725769 0.054295822978019714
-0.04173020273447037 0.0798015221953392 0.24300430715084076
-0.04173020273447037 -0.22291482985019684 0.15356183052062988
-0.04173020273447037 -0.8838233947753906 -0.031107855960726738
-0.006649288814514875 0.021094910800457 0.32215628027915955
-0.04173020273447037 0.17760346829891205 0.40089964866638184
0.016036173328757286 -0.8682671785354614 -0.11840899288654327
0.041324928402900696 -0.5260023474693298 0.13495592772960663
-0.04173020273447037 0.6254208087921143 -0.10588159412145615
0.041324928402900696 -0.4446050226688385 0.03885863721370697
0.041324928402900696 0.22584325075149536 0.32544559240341187
0.041324928402900696 0.4492468237876892 -0.3733731210231781
-0.04173020273447037 0.32346978783607483 -0.12854985892772675
-0.04173020273447037 0.027192147448658943 -0.052936851978302
0.020715689286589622 0.35015326738357544 -0.4269201457500458
-0.04173020273447037 -0.6987292766571045 -0.07794024795293808
0.041324928402900696 0.2126505821943283 0.04937073960900307
-0.04173020273447037 -0.2552533745765686 -0.1432851403951645
0.041324928402900696 0.32915449142456055 0.3640209138393402
0.041324928402900696 0.35562124848365784 -0.21290545165538788
-0.04173020273447037 -0.858079195022583 0.1378520131111145
0.041324928402900696 0.045953169465065 -0.11741730570793152
-0.025272006168961525 -0.9131892323493958 -0.07348686456680298
-0.04173020273447037 -0.23618818819522858 -0.11075088381767273
-0.04173020273447037 0.477204829454422 0.35926079750061035
0.0014555430971086025 0.4893072247505188 0.12857680022716522
0.03958910331130028 -0.8616107106208801 -0.1250653713941574
0.041324928402900696 -0.6801227927207947 0.14782947301864624
-0.018182862550020218 0.7076807022094727 -0.13090826570987701
0.041324928402900696 0.07890461385250092 0.049043599516153336
-0.04173020273447037 0.2719995975494385 -0.3499144911766052
0.0401250459253788 0.06255431473255157 -0.35802674293518066
-0.027794834226369858 0.4098173975944519 -0.4155691862106323
0.041324928402900696 0.09858986735343933 -0.1107574924826622
0.041324928402900696 -0.055199380964040756 -0.03924864903092384
-0.04173020273447037 0.25591081380844116 0.0012487747007980943
-0.04173020273447037 0.6823591589927673 -0.04449380561709404
0.041324928402900696 0.36245855689048767 0.20775917172431946
0.041324928402900696 0.3905312716960907 -0.08100628107786179
0.041324928402900696 0.07766691595315933 0.2906527519226074
0.041324928402900696 -0.5220891833305359 0.09222590923309326
0.041324928402900696 -0.7877042889595032 0.03555503860116005
-0.04173020273447037 0.31271129846572876 -0.2639703154563904
0.041324928402900696 0.15864819288253784 -0.3158596158027649
0.04083713889122009 0.05603728070855141 -0.3536783754825592
-0.04173020273447037 0.23544099926948547 -0.15550921857357025
-0.002760478761047125 -0.20557764172554016 0.18981494009494781
-0.04173020273447037 -0.663084864616394 -0.08728675544261932
0.030421385541558266 0.37871626019477844 0.19257429242134094
-0.0131723303347826 0.30807048082351685 0.425336629152298
0.041324928402900696 -0.8707410097122192 -0.055012546479701996
-0.04173020273447037 0.15907275676727295 -0.24124808609485626
-0.04173020273447037 0.7027259469032288 0.10889553278684616
-0.03167814016342163 0.6914368867874146 0.16966407001018524
0.041324928402900696 -0.5420569181442261 0.00916330423206091
-0.04173020273447037 0.6660925149917603 -0.07942315191030502
0.00821633916348219 0.37871626019477844 -0.09943784773349762
0.041324928402900696 0.3416774272918701 0.22864343225955963
0.009546281769871712 0.0183954369276762 -0.32429802417755127
-0.0021737287752330303 0.17407505214214325 -0.41106948256492615
-0.04173020273447037 -0.8184880614280701 0.06215612590312958
0.041324928402900696 0.4776965081691742 -0.35291793942451477
0.041324928402900696 0.18085050582885742 -0.2781098186969757
-0.04173020273447037 -0.5896299481391907 0.01761801727116108
0.01721189171075821 0.5128673315048218 -0.1350979506969452
0.041324928402900696 -0.47855931520462036 -0.009491926990449429
0.041324928402900696 -0.49804919958114624 -0.08295929431915283
0.041324928402900696 -0.6910178065299988 -0.0028947778046131134
0.03276084363460541 0.5690383315086365 -0.12195566296577454
0.041324928402900696 -0.4560408592224121 -0.16569973528385162
-0.005520503502339125 -0.5494029521942139 0.18981494009494781
0.041324928402900696 0.23801477253437042 0.4166558086872101
0.041324928402900696 0.29255273938179016 0.08920449763536453
-0.015052571892738342 -0.7716587781906128 -0.19431504607200623
-0.04173020273447037 -0.07100041955709457 -0.04796682298183441
0.0323609858751297 0.6067402362823486 0.11835720390081406
0.041324928402900696 0.06773912161588669 -0.30668696761131287
0.041324928402900696 0.13387145102024078 -0.044188085943460464
0.041324928402900696 0.2457411289215088 -0.25992831587791443
0.041324928402900696 0.5265191793441772 0.24740520119667053
-0.04173020273447037 -0.035153575241565704 -0.2635941505432129
0.041324928402900696 -0.9265872240066528 0.02788843773305416
0.041324928402900696 0.1938430666923523 -0.12005627155303955
-0.04173020273447037 -0.09902974963188171 -0.15423928201198578
0.006004035472869873 0.5211948156356812 0.15101847052574158
-0.005187337286770344 0.3929137885570526 0.05713155120611191
-0.04173020273447037 0.18125993013381958 -0.3254018723964691
0.041324928402900696 -0.6586899757385254 -0.03639509156346321
0.041324928402900696 0.2136804461479187 0.362397700548172
-0.04173020273447037 0.137689009308815 -0.19180205464363098
0.031123286113142967 0.4366450607776642 0.40296706557273865
0.041324928402900696 -0.7757321000099182 -0.04456628859043121
-0.021753141656517982 0.5877082347869873 -0.14850230515003204
-0.020425288006663322 -0.7500959038734436 -0.19431504607200623
0.041324928402900696 -0.4501382112503052 0.009061357006430626
-0.04173020273447037 0.029273128136992455 0.27131322026252747
0.0017319873441010714 -0.4109916388988495 -0.19431504607200623
-0.04173020273447037 -0.06506761163473129 0.06530614197254181
-0.04173020273447037 -0.8923071622848511 -0.0467924028635025
-0.014164583757519722 0.37894392013549805 -0.006658350117504597
-0.04173020273447037 -0.46191877126693726 -0.005498032085597515
-0.04173020273447037 -0.8765836358070374 -0.10551831126213074
-0.04173020273447037 0.0895427018404007 -0.1252709925174713
0.041324928402900696 0.6153818964958191 -0.11701162159442902
-0.04173020273447037 -0.08732893317937851 -0.11772509664297104
0.041324928402900696 0.10733604431152344 -0.1731596142053604
0.041324928402900696 -0.2245391309261322 0.07345599681138992
0.041324928402900696 0.18404704332351685 0.2077742964029312
-0.03773612156510353 0.48936861753463745 -0.15410979092121124
-0.04173020273447037 0.11405165493488312 -0.12247483432292938
-0.04173020273447037 -0.6535505056381226 -0.1665758192539215
0.010733957402408123 0.3788945972919464 -0.003404732095077634
0.020354008302092552 0.031083734706044197 -0.33501049876213074
0.041324928402900696 -0.0014113200595602393 -0.09343009442090988
-0.022776730358600616 0.37871626019477844 0.16148102283477783
0.02016092650592327 -0.47364717721939087 -0.19431504607200623
0.040843039751052856 0.5646008253097534 0.16581928730010986
-0.04173020273447037 -0.35312893986701965 -0.17240607738494873
-0.04173020273447037 0.31405264139175415 0.27943313121795654
-0.009240017272531986 -0.9999989867210388 0.032220546156167984
0.041324928402900696 -0.48784956336021423 -0.17020615935325623
-0.04173020273447037 0.2841475307941437 -0.1371505856513977
0.018767759203910828 0.716109573841095 -0.10031430423259735
-0.04173020273447037 0.10061714798212051 -0.15999601781368256
-0.04173020273447037 -0.08947783708572388 0.06101983040571213
-0.03612596169114113 0.08413544297218323 -0.3715866804122925
0.041324928402900696 0.6815656423568726 -0.13274343311786652
-0.04173020273447037 0.2605249285697937 -0.2057928442955017
-0.04173020273447037 0.27685919404029846 0.03448206186294556
-0.04173020273447037 -0.8235874772071838 -0.02458929643034935
0.041324928402900696 -0.1171073243021965 -0.015504545532166958
0.041324928402900696 0.353063702583313 -0.1879345178604126
-0.04173020273447037 -0.40174081921577454 -0.1709458827972412
0.041324928402900696 0.07671064883470535 0.29762670397758484
-0.03177570924162865 -0.9060943126678467 -0.08058187365531921
0.041324928402900696 -0.26813805103302 0.12510956823825836
-0.04173020273447037 0.22012729942798615 0.0929032564163208
0.041324928402900696 0.12515413761138916 -0.09568121284246445
-0.04173020273447037 -0.4828345477581024 -0.04322677105665207
-0.04173020273447037 0.45387765765190125 0.3438548445701599
0.041324928402900696 0.3594648241996765 -0.3473278880119324
0.033498913049697876 0.5436663031578064 -0.35361725091934204
-0.029688380658626556 -0.35276758670806885 -0.19431504607200623
0.041324928402900696 0.3902036249637604 -0.32191964983940125
0.041324928402900696 0.3098592460155487 0.32763615250587463
0.041324928402900696 -0.9343323111534119 0.09582893550395966
-0.04173020273447037 -0.5487260222434998 0.06983409821987152
0.00154498137999326 0.38745632767677307 0.04427139461040497
0.041324928402900696 -0.6656091213226318 -0.09957143664360046
0.041324928402900696 0.7076303362846375 -0.018419936299324036
0.041324928402900696 0.2004443109035492 -0.39139845967292786
0.022431116551160812 -0.0007410657708533108 0.30198851227760315
0.041324928402900696 -0.05105484649538994 0.004584417212754488
-0.04173020273447037 0.011024581268429756 -0.1601230800151825
0.041324928402900696 -0.7807387709617615 0.17578981816768646
0.041324928402900696 -0.8645336627960205 0.05758306384086609
0.041324928402900696 0.05591149628162384 0.15493646264076233
0.041324928402900696 0.0071416692808270454 -0.021369904279708862
0.041324928402900696 0.3759375810623169 -0.4061126112937927
-0.04173020273447037 0.22294701635837555 -0.09158927202224731
0.022084293887019157 -0.49643075466156006 0.18981494009494781
-0.04173020273447037 -0.7888144850730896 -0.1518547534942627
0.041324928402900696 -0.9348359107971191 0.05889786034822464
0.041324928402900696 0.17040255665779114 0.03762751817703247
-0.03896918520331383 0.6031689643859863 -0.12943822145462036
-0.04173020273447037 0.25386524200439453 0.3774104416370392
-0.04173020273447037 -0.4803244471549988 -0.17651912569999695
-0.04173020273447037 -0.0470568872988224 0.008095051161944866
-0.04173020273447037 0.15495280921459198 -0.07148468494415283
0.041324928402900696 -0.7810828685760498 0.07252632826566696
0.041324928402900696 0.2563211917877197 0.2685905992984772
0.041324928402900696 0.6231270432472229 -0.07942965626716614
-0.04173020273447037 0.24453553557395935 0.30011624097824097
0.041324928402900696 0.3443944752216339 -0.18108128011226654
0.041324928402900696 -0.7380227446556091 0.16699378192424774
-0.04173020273447037 0.6158003807067871 0.1125699058175087
-0.04173020273447037 -0.3646262288093567 -0.10630889981985092
-0.04173020273447037 0.472098708152771 -0.39287543296813965
-0.04173020273447037 -0.3126470744609833 -0.059701867401599884
0.041324928402900696 -0.24173089861869812 -0.16815148293972015
-0.04173020273447037 -0.5432066917419434 -0.14557808637619019
-0.04173020273447037 0.30157530307769775 0.3451952040195465
0.041324928402900696 0.19996534287929535 -0.048946917057037354
0.041324928402900696 0.2964969575405121 -0.08414556086063385
-0.04173020273447037 -0.8943109512329102 -0.033626116812229156
0.041324928402900696 0.6675170660018921 -0.0881529301404953
-0.04173020273447037 -0.16695541143417358 -0.18579955399036407
-0.04173020273447037 -0.04540077596902847 -0.23746199905872345
0.0033749688882380724 0.4255475401878357 -0.10343725234270096
-0.023611687123775482 0.5898014903068542 0.12993672490119934
-0.04173020273447037 0.5039918422698975 -0.3315911889076233
0.041324928402900696 0.5619670152664185 0.25199055671691895
-0.04173020273447037 0.12613163888454437 0.10523616522550583
-0.014462985098361969 0.44671541452407837 -0.11809706687927246
-0.04173020273447037 0.02543908730149269 -0.030970972031354904
-0.04173020273447037 -0.4806906282901764 0.13414223492145538
0.041324928402900696 0.3431209921836853 -0.15190204977989197
-0.04173020273447037 -0.04228387773036957 0.05969083681702614
-0.04173020273447037 0.3338281214237213 -0.07711102813482285
0.013651770539581776 -0.5228414535522461 0.18981494009494781
0.041324928402900696 0.2029809057712555 0.3884201645851135
0.041324928402900696 0.11485625058412552 -0.1506171077489853
-0.04173020273447037 -0.44958075881004333 0.18681217730045319
-0.04173020273447037 -0.8338757157325745 0.1807715743780136
0.041324928402900696 -0.5537187457084656 0.11337058991193771
-0.04173020273447037 -0.055678073316812515 -0.11505798250436783
-0.04173020273447037 -0.5714588165283203 -0.054930154234170914
-0.04173020273447037 0.0007324717589654028 -0.16536250710487366
-0.002987334504723549 0.4055207371711731 0.10887833684682846
-0.04173020273447037 0.3883621096611023 0.2508203983306885
-0.04173020273447037 0.025907639414072037 0.3138953745365143
-0.003755928250029683 0.37871626019477844 0.14080414175987244
0.041324928402900696 -0.20899568498134613 0.08957242965698242
0.022968577221035957 -0.5930926203727722 -0.19431504607200623
-0.013693098910152912 -0.6765022277832031 -0.19431504607200623
0.041324928402900696 -0.6972470879554749 -0.025259623304009438
0.041324928402900696 0.1697433888912201 -0.14338719844818115
-0.04173020273447037 -0.17707306146621704 0.004133776295930147
0.041324928402900696 -0.7775986790657043 0.005591149907559156
-0.04173020273447037 -0.12805773317813873 -0.008967484347522259
0.041324928402900696 0.3994428217411041 -0.31888267397880554
-0.04173020273447037 -0.3223532438278198 0.0847216472029686
0.03072996810078621 0.37871626019477844 0.14681996405124664
-0.04173020273447037 -0.8453916907310486 -0.004370496142655611
-0.04173020273447037 -0.4836341440677643 -0.13631226122379303
-0.04173020273447037 -0.41224241256713867 -0.07913345843553543
-0.04173020273447037 -0.654507577419281 0.11549867689609528
-0.04173020273447037 -0.06446310132741928 -0.06171468272805214
0.041324928402900696 -0.6171457767486572 0.0325361043214798
0.018723146989941597 -0.9687256217002869 -0.017950573936104774
-0.04173020273447037 -0.5153878927230835 -0.13582640886306763
0.041324928402900696 -0.7888585925102234 -0.05782851204276085
-0.04173020273447037 0.12366416305303574 0.26845285296440125
-0.019128168001770973 -0.311775803565979 -0.19431504607200623
0.041324928402900696 0.3128611743450165 0.23482978343963623
0.041324928402900696 -0.145795077085495 -0.09880468994379044
-0.04173020273447037 0.23184916377067566 -0.3006804287433624
0.041324928402900696 0.3989966809749603 0.3695753514766693
-0.009154342114925385 0.4095331132411957 0.214205801486969
-0.019574958831071854 0.4744933247566223 0.20963037014007568
0.04030957072973251 0.6404773592948914 0.0289801936596632
0.041324928402900696 -0.9377833604812622 -0.03752623870968819
-0.02627743035554886 0.4372605085372925 -0.21914252638816833
0.014110011048614979 0.2772688865661621 -0.4293600916862488
0.041324928402900696 0.671528160572052 0.04923294857144356
0.041324928402900696 0.2708049416542053 0.31878113746643066
-0.04173020273447037 0.0809299498796463 -0.20134106278419495
-0.04173020273447037 -0.16360041499137878 -0.0056155952624976635
0.041324928402900696 0.07552915066480637 0.13969430327415466
-0.04173020273447037 0.2988777458667755 -0.33884426951408386
-0.04173020273447037 -0.4123176634311676 -0.10370136052370071
0.041324928402900696 -0.1881069839000702 0.14292748272418976
0.041324928402900696 0.6495024561882019 -0.11437347531318665
0.041324928402900696 -0.8392205238342285 -0.0189946498721838
0.041324928402900696 0.10277032852172852 0.13407272100448608
0.041324928402900696 0.24833978712558746 0.04664307087659836
0.041324928402900696 0.2561001479625702 -0.39441949129104614
0.041324928402900696 0.14098265767097473 -0.19589059054851532
0.0038054599426686764 -0.8468589782714844 0.18981494009494781
0.041324928402900696 -0.27434617280960083 -0.016634320840239525
0.041324928402900696 0.3333423435688019 -0.21187333762645721
0.00817493163049221 -0.22941578924655914 0.18981494009494781
0.041324928402900696 0.33811959624290466 -0.3193511962890625
-0.04173020273447037 0.5311477780342102 0.32879698276519775
-0.04173020273447037 0.17911222577095032 -0.04699015989899635
0.012493631802499294 -0.14628690481185913 -0.19431504607200623
-0.04173020273447037 0.22430068254470825 0.2862796187400818
