0.11900981515645981 -0.9106305837631226 -0.4891766905784607
-0.10239081084728241 0.7432006597518921 -0.49584123492240906
-0.2696790099143982 -0.8860594034194946 -0.4662682116031647
0.00519221369177103 -0.5844153761863708 -0.19103087484836578
-0.3725144565105438 -0.4584100544452667 0.12806864082813263
0.04208587110042572 -0.46571338176727295 0.132966548204422
0.37121450901031494 0.6282714605331421 -0.31830501556396484
-0.1961754411458969 0.4414740204811096 0.38361459970474243
0.010255232453346252 0.13584868609905243 0.8549013137817383
-0.36373671889305115 -0.2743281424045563 0.4663976728916168
0.07815460860729218 -0.09595812857151031 -0.2169428914785385
-0.2033195197582245 0.19541729986667633 0.8122943639755249
0.21026253700256348 -0.9637285470962524 -0.4556187391281128
0.37121450901031494 -0.21418827772140503 -0.3608493506908417
0.13339483737945557 0.17223946750164032 0.7966498732566833
-0.36087581515312195 0.4615839719772339 0.3485791087150574
-0.3725144565105438 -0.6359817981719971 -0.23376718163490295
-0.19359326362609863 0.2057541459798813 0.7942855358123779
-0.12378363311290741 -0.1595245748758316 0.666408360004425
0.09179570525884628 0.08595436811447144 0.8854859471321106
-0.3180423080921173 -0.026896707713603973 -0.49584123492240906
0.27785536646842957 0.21079397201538086 -0.49584123492240906
-0.0976194217801094 0.45684316754341125 0.3568386137485504
0.37121450901031494 0.6982606053352356 -0.28423139452934265
0.15513741970062256 0.8845472931861877 -0.48148399591445923
-0.2714236378669739 0.35622355341911316 0.47611290216445923
-0.3725144565105438 0.6625984907150269 -0.4068726599216461
0.12007185071706772 0.05342806875705719 0.8888819813728333
-0.09247400611639023 -0.5629561543464661 -0.09247460961341858
-0.14803367853164673 0.4348118007183075 0.3391965925693512
0.146742582321167 -0.791846513748169 -0.49584123492240906
0.05717658996582031 0.4615703523159027 -0.49584123492240906
-0.174093559384346 -0.2227204293012619 -0.49584123492240906
-0.2954692840576172 0.07440956681966782 -0.2169428914785385
0.007821780629456043 0.44719502329826355 0.31762251257896423
0.21781468391418457 -0.5861888527870178 -0.1329505443572998
0.1206049770116806 0.6322187185287476 0.05129960551857948
0.1528257578611374 0.8685116171836853 -0.36036965250968933
-0.3240211606025696 -0.40584465861320496 0.1812448799610138
-0.12548957765102386 -0.5884125232696533 -0.18146845698356628
-0.3725144565105438 -0.45525872707366943 -0.32976579666137695
-0.3725144565105438 0.020970642566680908 -0.3259935975074768
0.19706906378269196 0.6391792297363281 0.03917302191257477
-0.10632448643445969 0.3396555781364441 0.5610025525093079
0.32994332909584045 -0.8391533493995667 -0.49584123492240906
0.3586967885494232 -0.09819510579109192 -0.49584123492240906
-0.1823359578847885 -0.9572703838348389 -0.41778072714805603
0.37121450901031494 0.4715624749660492 -0.4269219636917114
0.1414320319890976 -0.05121711641550064 0.7990765571594238
0.013747739605605602 -0.5052233338356018 0.06413241475820541
0.35302406549453735 0.28762152791023254 -0.2169428914785385
0.12005121260881424 -0.21376490592956543 0.5719108581542969
0.16580438613891602 -0.17336997389793396 -0.2169428914785385
0.26031485199928284 0.01688465103507042 -0.49584123492240906
-0.32952794432640076 -0.3604544401168823 0.2603236436843872
-0.09849181771278381 0.5773871541023254 0.14682692289352417
-0.10448472946882248 -0.5930501222610474 -0.1641971617937088
0.12365581840276718 -0.4215618371963501 0.15386243164539337
-0.052041154354810715 -0.1787775605916977 0.576840877532959
0.37121450901031494 -0.2425849586725235 -0.49006035923957825
-0.013163934461772442 0.19262389838695526 -0.2169428914785385
-0.1210486963391304 -0.19466270506381989 0.549165666103363
-0.0010116392513737082 -0.5395560264587402 -0.49584123492240906
0.21495135128498077 -0.0637395828962326 -0.2169428914785385
0.1547667235136032 0.3544046878814697 0.5353068709373474
0.2581343352794647 0.029296329244971275 0.8846087455749512
-0.0176355242729187 -0.6206911206245422 -0.13703550398349762
0.05729847773909569 0.013835618272423744 0.9083935618400574
-0.35584747791290283 0.8763546347618103 -0.48835238814353943
-0.20412838459014893 -0.3355900049209595 0.3036424219608307
0.2102070450782776 0.4814205467700958 -0.49584123492240906
0.2326076477766037 -0.20530083775520325 -0.2169428914785385
-0.01867893896996975 0.6037304997444153 -0.49584123492240906
0.300249308347702 0.32006433606147766 0.5391095876693726
-0.36412036418914795 -0.24125619232654572 0.46799054741859436
0.33746710419654846 0.25866591930389404 0.7021026611328125
-0.3363121747970581 0.3043600618839264 0.6224943995475769
-0.049538757652044296 0.4883449077606201 0.30195626616477966
-0.2489200234413147 0.4834907650947571 0.3104132413864136
-0.13690412044525146 -0.9696804881095886 -0.3870428204536438
-0.06536822021007538 0.4828070402145386 0.311604380607605
-0.1688605695962906 -0.15843023359775543 0.6122899651527405
-0.20777684450149536 -0.27314451336860657 -0.49584123492240906
-0.1783391833305359 0.28724831342697144 0.6523065567016602
-0.3725144565105438 0.549231767654419 -0.32877472043037415
0.37121450901031494 0.6720789670944214 -0.24265733361244202
0.191389262676239 0.5946621298789978 0.11673063039779663
0.3249567151069641 -0.1425812691450119 0.6399019360542297
0.03835001215338707 0.6838597655296326 -0.03866947069764137
0.29861825704574585 -0.9887877106666565 -0.4182232618331909
0.32392677664756775 0.241756871342659 -0.49584123492240906
-0.2760465443134308 0.3790336847305298 0.49239805340766907
-0.323802649974823 -0.2650808095932007 0.4264834225177765
-0.2788259983062744 -0.9997792840003967 -0.3680782914161682
-0.011284356005489826 0.2555299401283264 0.7075662016868591
0.1623900830745697 -0.6030922532081604 -0.49584123492240906
-0.3725144565105438 0.7848923206329346 -0.4013229310512543
0.31426531076431274 -0.09647306054830551 0.7202315926551819
0.08094177395105362 -0.9999990463256836 -0.29998165369033813
0.1335190385580063 0.5204573273658752 0.18998503684997559
-0.07622651755809784 -0.3159038722515106 0.33793962001800537
-0.34974899888038635 -0.2845211625099182 0.3926144540309906
-0.16300198435783386 0.8822752237319946 -0.3843485414981842
0.09740320593118668 -0.33833545446395874 0.3548842966556549
-0.15016312897205353 0.9053258299827576 -0.43889516592025757
-0.004112448543310165 -0.32664838433265686 -0.49584123492240906
-0.13738581538200378 -0.540999710559845 -0.05422213673591614
0.20258155465126038 0.6070303320884705 0.09518278390169144
0.37121450901031494 -0.5042135119438171 -0.425621896982193
-0.05108487233519554 0.5123802423477173 0.20405687391757965
0.014558441005647182 -0.32913482189178467 0.314888596534729
0.009706998243927956 0.6997575759887695 -0.06636663526296616
-0.3725144565105438 0.11113327741622925 -0.45098888874053955
0.2691369652748108 0.47966933250427246 -0.2169428914785385
-0.15566645562648773 0.26471611857414246 0.6355370879173279
-0.1596105396747589 -0.10037492215633392 -0.49584123492240906
0.163773313164711 0.4296773672103882 0.3481418490409851
-0.03277216851711273 -0.849493145942688 -0.4652453064918518
-0.3663325607776642 -0.5298361778259277 0.021251976490020752
0.37121450901031494 -0.10830526053905487 -0.41030123829841614
0.09441864490509033 -0.49619612097740173 -0.2169428914785385
0.23972176015377045 -0.1736229807138443 -0.2169428914785385
-0.37005600333213806 0.6359872221946716 -0.2169428914785385
-0.073514424264431 -0.15488208830356598 0.6184715032577515
0.36920881271362305 -0.32673102617263794 0.3190765380859375
-0.04945875331759453 -0.7178860306739807 -0.30636826157569885
-0.13743950426578522 0.264965295791626 -0.2169428914785385
0.31829512119293213 0.37293845415115356 -0.49584123492240906
-0.06886253505945206 0.44099199771881104 -0.49584123492240906
0.2953822612762451 -0.9713187217712402 -0.3731662333011627
0.1010819673538208 -0.1403771936893463 -0.49584123492240906
-0.21038518846035004 -0.11727298051118851 0.6839940547943115
-0.10678412765264511 -0.6019464135169983 -0.49584123492240906
-0.3725144565105438 -0.3913077414035797 -0.4841887950897217
0.001369007513858378 0.5245691537857056 -0.49584123492240906
0.1882959008216858 0.25242891907691956 0.7129688858985901
-0.26342546939849854 0.25673365592956543 0.6494442224502563
-0.3725144565105438 -0.5895615220069885 -0.19206871092319489
-0.3129042088985443 -0.025753427296876907 -0.49584123492240906
0.3399379551410675 -0.08879990875720978 -0.49584123492240906
-0.3725144565105438 0.10884048044681549 -0.2942947745323181
0.34461602568626404 0.7425294518470764 -0.1408836841583252
-0.3725144565105438 -0.2240803986787796 -0.42026257514953613
0.04641599580645561 0.34600672125816345 0.5499377250671387
0.37121450901031494 0.012318904511630535 -0.2633182108402252
0.05606377124786377 -0.44077935814857483 0.17640666663646698
0.37121450901031494 0.4489876627922058 -0.4937656819820404
-0.2003566473722458 0.6345519423484802 -0.49584123492240906
-0.038395192474126816 0.8189389109611511 -0.2740042805671692
-0.36475104093551636 -0.07275155931711197 -0.2169428914785385
0.04775383323431015 -0.7167379856109619 -0.30436813831329346
0.16711604595184326 -0.5913029313087463 -0.17156004905700684
0.23094816505908966 0.8086928725242615 -0.2561536431312561
0.34644922614097595 0.2530897557735443 0.6557925939559937
-0.3725144565105438 -0.08298846334218979 -0.39225542545318604
-0.2086167186498642 -0.0023255005944520235 0.9014492034912109
0.018101057037711143 -0.6840614080429077 -0.49584123492240906
-0.32161757349967957 0.6941043734550476 -0.11254248768091202
-0.1615055948495865 0.6529046893119812 0.01526037510484457
0.027422387152910233 -0.2038092315196991 0.5332306623458862
-0.0991499200463295 0.3344360291957855 -0.2169428914785385
-0.237778440117836 0.4258964955806732 -0.49584123492240906
0.3076764941215515 0.7126474976539612 -0.15483732521533966
-0.3725144565105438 -0.6400048136711121 -0.2682454586029053
-0.12418027222156525 0.06788543611764908 -0.2169428914785385
-0.3725144565105438 -0.3158576488494873 -0.46092936396598816
-0.04223787039518356 -0.5685263872146606 -0.20689323544502258
0.37121450901031494 0.2050701081752777 -0.2538626194000244
-0.3725144565105438 -0.9844240546226501 -0.38391411304473877
-0.3337661027908325 -0.5343986749649048 -0.04272177442908287
-0.358982115983963 -0.4611435830593109 -0.49584123492240906
0.15860538184642792 -0.4778839945793152 0.11176297813653946
-0.02389831840991974 0.42813268303871155 0.40685799717903137
-0.159894198179245 -0.5800890326499939 -0.12232348322868347
0.36037635803222656 -0.45577314496040344 0.09425948560237885
-0.030541779473423958 -0.9770993590354919 -0.2727225422859192
0.00704870605841279 0.43149906396865845 0.4009930491447449
-0.10171573609113693 -0.5627603530883789 -0.03610852733254433
-0.1635195016860962 0.8924704790115356 -0.40211084485054016
0.23513324558734894 -0.18776124715805054 -0.49584123492240906
0.0602792426943779 -0.6439676880836487 -0.17758780717849731
-0.1569264531135559 0.7977617979049683 -0.23710942268371582
0.18574176728725433 0.673503041267395 -0.21327662467956543
-0.16067670285701752 0.1267213076353073 -0.2169428914785385
0.2177935242652893 0.7473387122154236 -0.1492624133825302
-0.318635493516922 -0.5233856439590454 -0.49584123492240906
-0.08895617723464966 0.5842558145523071 0.13486051559448242
-0.3725144565105438 0.2224237322807312 -0.4729953706264496
0.25735023617744446 -0.21366000175476074 -0.2169428914785385
0.3301514983177185 0.350816011428833 0.4855339825153351
0.14100465178489685 0.2609444856643677 -0.2169428914785385
-0.06135188043117523 0.2850296199321747 0.6001469492912292
0.24021108448505402 -0.9721091985702515 -0.3405053913593292
0.05029052123427391 -0.6014336347579956 -0.49584123492240906
-0.13143329322338104 -0.03472483530640602 0.8759168386459351
-0.2817000150680542 0.3663736879825592 0.45842939615249634
0.37121450901031494 0.4456780254840851 0.32734349370002747
-0.31742313504219055 0.02085084654390812 0.9111778736114502
0.37121450901031494 0.14738738536834717 -0.25565293431282043
0.3172135353088379 -0.18668769299983978 0.5630598068237305
0.13714973628520966 0.18859946727752686 0.8241724371910095
-0.35212647914886475 0.47579485177993774 -0.49584123492240906
0.13193586468696594 0.12269886583089828 0.9007048606872559
0.06660810112953186 0.3940078914165497 0.4102850556373596
0.22207243740558624 -0.9999990463256836 -0.3463086783885956
0.21068228781223297 0.315364807844162 0.6033219695091248
-0.08048920333385468 0.48463937640190125 0.30841192603111267
-0.1573231965303421 -0.28196167945861816 -0.2169428914785385
0.011175481602549553 0.605165958404541 0.04240582510828972
0.019764699041843414 0.23261460661888123 -0.2169428914785385
-0.21069028973579407 -0.36497440934181213 0.3084739148616791
0.27486947178840637 -0.3594367802143097 -0.49584123492240906
-0.22107817232608795 -0.1737460345029831 -0.2169428914785385
-0.34607255458831787 -0.30039992928504944 0.3649505376815796
0.2353893518447876 -0.5103601217269897 0.05518317222595215
-0.3725144565105438 -0.15192347764968872 -0.2807457745075226
-0.06886466592550278 0.7725211381912231 -0.49584123492240906
0.37121450901031494 0.10156756639480591 -0.4776371121406555
-0.35959360003471375 -0.9457562565803528 -0.4710819721221924
-0.3529280424118042 -0.9916998744010925 -0.41139012575149536
0.37121450901031494 0.5360049605369568 -0.22040988504886627
-0.18777330219745636 0.5615804195404053 -0.49584123492240906
0.299378901720047 0.7011811137199402 -0.12487149983644485
0.09970980137586594 -0.2691444754600525 -0.49584123492240906
0.2408103495836258 -0.16129839420318604 0.6072930693626404
-0.3725144565105438 -0.4670158326625824 0.12984293699264526
0.029226073995232582 -0.5042575001716614 -0.2169428914785385
0.15727680921554565 -0.1575772613286972 0.6137759685516357
-0.17564436793327332 -0.6009795069694519 -0.10269393771886826
-0.36914730072021484 -0.7365815043449402 -0.49584123492240906
-0.03114253655076027 0.7997114658355713 -0.49584123492240906
0.22251757979393005 0.589417040348053 0.06984350085258484
0.13675719499588013 -0.01465674676001072 -0.49584123492240906
0.09594737738370895 0.6578682065010071 -0.049411941319704056
0.1144278272986412 0.15699416399002075 0.8732007741928101
0.37121450901031494 0.1298282891511917 -0.22620068490505219
0.11073342710733414 -0.9999990463256836 -0.30025601387023926
-0.12169992178678513 0.37852713465690613 -0.49584123492240906
-0.24697956442832947 -0.02606898359954357 0.8848527073860168
0.14572998881340027 0.2909914255142212 0.6457852721214294
-0.1892375349998474 0.20794664323329926 0.734440803527832
0.27641767263412476 -0.1982317715883255 -0.2169428914785385
0.37121450901031494 -0.4406917691230774 -0.4066596031188965
-0.15854917466640472 -0.41252604126930237 -0.49584123492240906
0.32509806752204895 -0.7850444912910461 -0.4221797585487366
-0.2840662896633148 0.33210816979408264 0.5181267261505127
0.16100841760635376 0.29822462797164917 0.5771586298942566
0.16046060621738434 0.8643085956573486 -0.35304704308509827
0.3318629860877991 -0.3448077440261841 0.34360823035240173
0.22214984893798828 0.792474627494812 -0.22789804637432098
-0.11292556673288345 -0.4876170754432678 0.09480597823858261
-0.016086610034108162 0.8432368636131287 -0.49584123492240906
-0.3725144565105438 0.4935922622680664 -0.26814743876457214
0.2505703866481781 -0.41454771161079407 0.16608242690563202
0.17949162423610687 -0.3476240038871765 0.2826768159866333
0.13763956725597382 0.6189101338386536 0.07448570430278778
0.24810269474983215 -0.007451077923178673 0.8980714678764343
-0.05596652999520302 0.1460883468389511 -0.49584123492240906
-0.14725160598754883 0.2416834682226181 0.7316895127296448
-0.3486601710319519 0.504511833190918 0.2737901508808136
0.13422200083732605 0.34155020117759705 0.5016767978668213
-0.2845413088798523 -0.21560263633728027 -0.2169428914785385
0.25622403621673584 0.5478671193122864 0.14223170280456543
0.11910730600357056 -0.30630284547805786 0.354666531085968
-0.1917642205953598 0.5973448753356934 0.056031711399555206
0.28196030855178833 -0.3214472532272339 0.3282819390296936
0.340297132730484 0.39897042512893677 0.457664430141449
-0.14437603950500488 -0.21875309944152832 0.5632205605506897
0.14085865020751953 0.15726858377456665 0.8730485439300537
-0.1832263320684433 0.09669747203588486 0.911496102809906
0.1342863291501999 0.2998727560043335 -0.2169428914785385
-0.3725144565105438 -0.3090701401233673 -0.30327844619750977
0.13214680552482605 -0.12351864576339722 0.6731128692626953
0.22552667558193207 -0.07171942293643951 0.7633574604988098
0.14326053857803345 0.7046318650245667 -0.19097818434238434
0.188664048910141 0.03115909732878208 0.8848548531532288
-0.2424384355545044 0.24097950756549835 -0.49584123492240906
0.17798487842082977 -0.5048829317092896 -0.49584123492240906
0.1664576679468155 0.5564836859703064 0.18324486911296844
0.0758863091468811 -0.5934634208679199 -0.15972985327243805
-0.19193297624588013 -0.1789972335100174 -0.2169428914785385
0.29306110739707947 0.4141826629638672 0.37513670325279236
-0.10166894644498825 -0.4949459135532379 0.08203767985105515
-0.25041770935058594 -0.1967339962720871 0.6015821099281311
-0.317405641078949 -0.3566914498806 0.322904497385025
-0.18082505464553833 -0.29543519020080566 -0.49584123492240906
-0.1463812291622162 0.1525542438030243 -0.2169428914785385
-0.343547523021698 -0.6303701996803284 -0.153898224234581
0.1853625476360321 -0.5137174129486084 -0.2169428914785385
-0.3725144565105438 -0.21804502606391907 -0.49542784690856934
-0.3635094165802002 -0.40686410665512085 -0.2169428914785385
0.045800525695085526 0.1758386790752411 0.7903793454170227
0.035989969968795776 0.6195322871208191 -0.49584123492240906
-0.34277692437171936 -0.33988067507743835 -0.49584123492240906
-0.3307872414588928 -0.21556490659713745 0.5127499103546143
0.2528940439224243 -0.5572999715805054 -0.08262038230895996
0.33994510769844055 0.22930306196212769 0.6972336173057556
-0.2744395434856415 -0.2974865138530731 -0.2169428914785385
-0.3214532136917114 0.28943124413490295 0.6485034227371216
-0.18809516727924347 0.765163242816925 -0.18031634390354156
-0.01586240716278553 -0.5893998742103577 -0.14452320337295532
-0.3708086609840393 -0.1561751663684845 0.616218626499176
0.37121450901031494 -0.44106635451316833 -0.2436228096485138
0.11153483390808105 0.1996999830007553 -0.49584123492240906
-0.3725144565105438 0.6454386115074158 -0.4199387729167938
0.3193518817424774 -0.3879442811012268 0.26845583319664
-0.2557391822338104 -0.5913056135177612 -0.1490458995103836
-0.2624383270740509 -0.5850825309753418 -0.13102316856384277
0.26903608441352844 -0.5066169500350952 -0.2169428914785385
0.37121450901031494 0.13707970082759857 -0.43751296401023865
0.2652479410171509 -0.21013228595256805 0.5222147107124329
-0.05037570372223854 -0.7289347052574158 -0.3256171643733978
-0.25986433029174805 -0.37794196605682373 0.28588181734085083
0.20591610670089722 -0.123105987906456 -0.49584123492240906
0.2679245173931122 -0.0718156024813652 -0.2169428914785385
-0.32025912404060364 0.25870856642723083 0.7020284533500671
-0.18616659939289093 0.14471228420734406 0.8430790901184082
-0.22699356079101562 0.42922839522361755 -0.49584123492240906
0.10288877040147781 -0.11563682556152344 -0.2169428914785385
0.06201547756791115 -0.9919767379760742 -0.4103337824344635
-0.006771450396627188 -0.34415674209594727 -0.2169428914785385
-0.1459241360425949 0.1662948876619339 0.8070065379142761
0.25850507616996765 -0.2976664900779724 0.3697127401828766
0.21600742638111115 0.629840075969696 -0.0005812864983454347
0.07377933710813522 -0.41093501448631287 -0.2169428914785385
-0.16573499143123627 0.6562010049819946 0.009517657570540905
0.1046774610877037 -0.9721091985702515 -0.3471110165119171
0.23454049229621887 -0.3622782528400421 -0.49584123492240906
-0.3449428975582123 0.7971579432487488 -0.49584123492240906
0.27338871359825134 -0.09196504950523376 -0.2169428914785385
-0.284526526927948 0.5564990043640137 -0.49584123492240906
0.35544341802597046 -0.4048866033554077 0.18291398882865906
-0.28382372856140137 0.621404230594635 -0.49584123492240906
0.007910865359008312 -0.6789117455482483 -0.23846739530563354
0.21446095407009125 0.7771053314208984 -0.2011217176914215
-0.14459997415542603 -0.19908879697322845 -0.2169428914785385
-0.3725144565105438 -0.6111449003219604 -0.16722510755062103
0.04418748989701271 0.31886792182922363 0.5411939024925232
-0.12210376560688019 0.6980941891670227 -0.0634685680270195
0.37121450901031494 -0.058543574064970016 -0.27138751745224
-0.047213114798069 0.6900938153266907 -0.49584123492240906
-0.2403840869665146 0.012002142146229744 -0.2169428914785385
0.3546085059642792 0.2830645740032196 0.6035705208778381
-0.015886735171079636 -0.13922803103923798 -0.2169428914785385
-0.22904135286808014 -0.5470489263534546 -0.008736072108149529
0.006573243532329798 -0.23864273726940155 0.5285688042640686
-0.2005215883255005 0.2944616973400116 0.5837144255638123
-0.30494195222854614 -0.9317552447319031 -0.4465053081512451
-0.08951723575592041 0.24914780259132385 0.7186851501464844
-0.352003812789917 -0.45454344153404236 -0.2169428914785385
-0.06610987335443497 -0.07189688831567764 -0.49584123492240906
-0.2550906240940094 -0.3338833153247833 -0.49584123492240906
0.16081929206848145 -0.474712997674942 0.11728748679161072
0.33149081468582153 -0.02338714338839054 0.8463385105133057
0.37121450901031494 0.8684979677200317 -0.3991531729698181
0.37121450901031494 0.4209287166595459 -0.362409383058548
0.05075693875551224 -0.12589316070079803 0.7250009775161743
-0.023914312943816185 0.08875805884599686 -0.49584123492240906
-0.15295888483524323 -0.010491740889847279 -0.2169428914785385
-0.3725144565105438 -0.8756743669509888 -0.4842575490474701
-0.1180066391825676 -0.13934201002120972 0.6455454230308533
-0.3725144565105438 0.692354142665863 -0.3481258749961853
-0.23323003947734833 -0.8725854158401489 -0.4956253468990326
0.10165555775165558 0.5978848338127136 -0.49584123492240906
0.3134852349758148 0.5713762044906616 0.15729932487010956
-0.22503149509429932 0.650277853012085 -0.0361880362033844
0.2066466212272644 -0.5392741560935974 -0.0512157678604126
-0.039812467992305756 0.7641827464103699 -0.49584123492240906
-0.3153133988380432 -0.5075541138648987 -0.2169428914785385
0.33388128876686096 0.49685138463974 0.2871363162994385
-0.35782432556152344 -0.4628647267818451 0.0819045826792717
-0.17248933017253876 -0.35172852873802185 -0.49584123492240906
-0.3464212119579315 -0.16723603010177612 0.5969484448432922
0.01066980417817831 0.7710983157157898 -0.19065643846988678
0.28839170932769775 -0.22308073937892914 -0.2169428914785385
-0.3297019600868225 0.21057982742786407 0.7298532724380493
-0.19061705470085144 -0.589631974697113 -0.17744207382202148
-0.3725144565105438 -0.16538801789283752 -0.30775925517082214
0.17018437385559082 0.3090628981590271 0.6143011450767517
0.1592177003622055 -0.08643113821744919 0.7377265691757202
0.12677651643753052 0.6142392754554749 0.08262332528829575
-0.12364999949932098 -0.9720838069915771 -0.4458337426185608
0.30514466762542725 -0.5791038274765015 -0.06458205729722977
0.279852956533432 -0.1595880538225174 0.6102727651596069
0.036322906613349915 0.259859561920166 0.6439982056617737
0.13666757941246033 -0.1675778329372406 -0.2169428914785385
-0.22735944390296936 -0.5488418936729431 -0.06788469105958939
-0.12132811546325684 -0.791883647441864 -0.43117520213127136
0.15742214024066925 0.44408613443374634 0.37906375527381897
-0.30446842312812805 -0.5693597793579102 -0.49584123492240906
0.027084099128842354 -0.32068464159965515 0.32961052656173706
0.2805531620979309 0.46860605478286743 0.28032031655311584
0.1978301852941513 0.3697677254676819 0.5085412859916687
0.13897399604320526 -0.21556000411510468 0.5687834620475769
-0.1780228465795517 -0.987051248550415 -0.2727225422859192
-0.3725144565105438 -0.20107661187648773 -0.27661100029945374
-0.19321852922439575 0.3208637535572052 -0.49584123492240906
0.37121450901031494 -0.050147246569395065 -0.4201219379901886
-0.3725144565105438 -0.6414588689804077 -0.43439581990242004
-0.3508028984069824 0.5241982340812683 -0.49584123492240906
0.08588805049657822 0.47996383905410767 0.3165576756000519
-0.34247827529907227 -0.3612384796142578 -0.49584123492240906
-0.07908234000205994 -0.2601604461669922 0.491080641746521
-0.1498701274394989 0.22128747403621674 0.7111983895301819
-0.3725144565105438 0.4750760793685913 0.3205045759677887
0.32479172945022583 -0.5716139674186707 -0.10755828768014908
-0.03953397274017334 0.7957944273948669 -0.23368191719055176
-0.27408894896507263 0.15215769410133362 0.8784769177436829
-0.37104547023773193 -0.39106398820877075 -0.49584123492240906
0.33210840821266174 0.5979113578796387 0.05504496768116951
-0.09694492071866989 0.4846145510673523 0.25243040919303894
0.37121450901031494 0.4227725565433502 -0.34955981373786926
-0.28258588910102844 0.11739660799503326 -0.49584123492240906
0.18316152691841125 -0.4565958082675934 0.1488511860370636
-0.28901776671409607 -0.448473185300827 0.16300247609615326
0.29668059945106506 -0.4241836667060852 0.20531964302062988
-0.3699140250682831 -0.5655841827392578 -0.04102820158004761
-0.15846960246562958 -0.640533447265625 -0.17160464823246002
0.1882593035697937 0.1767631471157074 0.8447935581207275
0.23821362853050232 0.1804385483264923 0.8383903503417969
-0.01398587878793478 0.6812803745269775 -0.09020069241523743
-0.11429647356271744 0.2972884476184845 0.5787897109985352
0.06708108633756638 -0.9836302399635315 -0.4281730651855469
-0.29069939255714417 -0.08456702530384064 -0.49584123492240906
0.3393596112728119 0.8540758490562439 -0.495107501745224
-0.2911491394042969 -0.5414589643478394 0.00100270239636302
0.37121450901031494 -0.26845958828926086 -0.4746980667114258
0.0237002894282341 -0.2031884789466858 0.5343121886253357
-0.26311594247817993 -0.5416228175163269 0.0007173254853114486
0.2763766646385193 -0.6340163946151733 -0.49584123492240906
0.09391374886035919 0.3492470979690552 0.4882672429084778
-0.002520728623494506 0.19137230515480042 -0.49584123492240906
0.031666867434978485 -0.8265994787216187 -0.49584123492240906
-0.24320431053638458 0.1105017438530922 0.8755750060081482
0.3647215664386749 0.6211135387420654 0.014621850103139877
-0.35132309794425964 -0.2864237427711487 0.4453248083591461
-0.03532658517360687 -0.4615706503391266 0.14018402993679047
0.37121450901031494 0.0007885012309998274 -0.31992286443710327
0.06482803821563721 0.09752441942691803 -0.2169428914785385
-0.1195530891418457 -0.18341125547885895 0.5687680840492249
-0.18318478763103485 0.03445233404636383 0.8858255743980408
-0.2100980579853058 0.679767906665802 -0.08756569772958755
0.1629137396812439 0.2257370501756668 -0.2169428914785385
-0.3725144565105438 -0.12594124674797058 -0.29218459129333496
0.37121450901031494 0.2966276705265045 0.6250443458557129
0.1400866061449051 -0.127915158867836 -0.49584123492240906
0.08891080319881439 0.4814194142818451 -0.2169428914785385
-0.2130676954984665 -0.4048658311367035 -0.2169428914785385
-0.220007985830307 -0.05385526642203331 0.8505052328109741
-0.2421027570962906 -0.07167559117078781 0.7634337544441223
0.2276730090379715 -0.23474852740764618 0.5353532433509827
-0.07986576855182648 -0.16120867431163788 -0.49584123492240906
-0.3261498212814331 0.402167409658432 -0.49584123492240906
0.17849576473236084 -0.9836604595184326 -0.42813965678215027
-0.3725144565105438 0.07685195654630661 -0.4407482445240021
-0.3725144565105438 -0.18306294083595276 -0.3534015119075775
0.036929547786712646 0.5821554660797119 -0.2169428914785385
-0.3687637448310852 0.4993305802345276 -0.49584123492240906
-0.09272072464227676 -0.0004340764135122299 -0.2169428914785385
0.36031103134155273 -0.31246668100357056 0.39995276927948
-0.022434907034039497 -0.9999990463256836 -0.3243933618068695
-0.214433953166008 -0.29255762696266174 0.3786133825778961
0.14372418820858002 -0.6961012482643127 -0.26841482520103455
-0.3725144565105438 -0.9684875011444092 -0.44793033599853516
0.3629562556743622 -0.9033365249633789 -0.4621444344520569
0.2035359889268875 -0.691485583782196 -0.26037347316741943
0.018193228170275688 0.7096972465515137 -0.14704342186450958
0.13105398416519165 0.41878488659858704 0.3671186566352844
-0.2149145007133484 -0.38847169280052185 -0.2169428914785385
0.1750306487083435 -0.22462043166160583 -0.49584123492240906
0.09962362051010132 0.35890814661979675 -0.49584123492240906
0.23076502978801727 -0.14059707522392273 0.6433589458465576
0.37121450901031494 -0.6524056792259216 -0.270957350730896
0.07701905816793442 -0.6243542432785034 -0.1434173583984375
-0.3725144565105438 0.767530083656311 -0.41648656129837036
-0.2814219892024994 0.16464589536190033 -0.49584123492240906
0.12414486706256866 0.528144896030426 0.17659175395965576
0.19875915348529816 0.4089575707912445 0.4402647018432617
-0.04917249083518982 0.3055269718170166 -0.49584123492240906
-0.28096961975097656 -0.1167086809873581 0.6849771738052368
0.007224322762340307 0.09634985774755478 -0.2169428914785385
-0.24129939079284668 0.007195525802671909 0.9057089686393738
-0.2610599994659424 -0.5146772265434265 -0.00836306344717741
-0.1185661107301712 -0.11632191389799118 -0.2169428914785385
-0.13493166863918304 0.47416195273399353 0.32666584849357605
-0.2992421090602875 0.7111031413078308 -0.17578968405723572
-0.33069998025894165 0.02943435311317444 0.9133163690567017
0.07485999166965485 -0.9344052672386169 -0.4442411959171295
-0.08025524765253067 0.41418296098709106 -0.2169428914785385
-0.12997651100158691 0.3675754964351654 0.5123605728149414
0.37121450901031494 -0.0005373468738980591 -0.26903200149536133
0.055361200124025345 -0.04524225369095802 0.8094858527183533
0.2986762821674347 -0.06081559509038925 0.8383790254592896
0.16283965110778809 -0.9721091985702515 -0.28280404210090637
-0.026765918359160423 -0.2774792015552521 0.40488293766975403
-0.20978696644306183 0.398756206035614 0.4580375850200653
-0.34748563170433044 -0.5269830822944641 0.026222577318549156
0.30176398158073425 0.17101937532424927 -0.2169428914785385
-0.3328172564506531 -0.1537715047597885 -0.49584123492240906
0.15171106159687042 0.37624311447143555 0.4972600042819977
0.15883679687976837 -0.26529255509376526 -0.49584123492240906
-0.28426581621170044 -0.9707472324371338 -0.3776881992816925
-0.032696984708309174 0.7468558549880981 -0.14842116832733154
-0.3725144565105438 0.7269361615180969 -0.2444050908088684
-0.16355390846729279 -0.9671140313148499 -0.39546337723731995
-0.2086738646030426 0.2265419363975525 0.7020441293716431
-0.05703657865524292 0.07246296107769012 -0.49584123492240906
0.29901447892189026 0.3067178428173065 0.5623618364334106
-0.2854427099227905 -0.521770715713501 0.03530360385775566
-0.3725144565105438 0.7830713391304016 -0.27765342593193054
0.34217536449432373 -0.2164383828639984 0.5112282037734985
-0.3725144565105438 -0.09802260994911194 -0.36718010902404785
0.25895991921424866 0.20900964736938477 0.7886138558387756
0.3249964118003845 0.46951988339424133 0.33475321531295776
0.26734021306037903 -0.26771238446235657 -0.2169428914785385
0.19858244061470032 -0.7055245637893677 -0.49584123492240906
0.22381356358528137 -0.4418569803237915 0.17452917993068695
0.0834188461303711 0.4408024847507477 0.38478463888168335
-0.27459439635276794 -0.32070258259773254 0.32957926392555237
0.1453569382429123 0.10096298158168793 -0.49584123492240906
0.07971728593111038 -0.4917791783809662 0.08755481243133545
0.18127258121967316 -0.5100787878036499 -0.2169428914785385
0.37121450901031494 0.33391571044921875 -0.46140313148498535
-0.07427987456321716 -0.47596168518066406 0.059087056666612625
-0.3725144565105438 -0.6777688264846802 -0.29554328322410583
0.11761726438999176 -0.06375965476036072 0.8332498073577881
0.14036542177200317 0.6376931667327881 -0.49584123492240906
0.07225733995437622 0.2598705589771271 0.6439791321754456
-0.154493510723114 0.6658245921134949 -0.06327355653047562
-0.013657554984092712 0.4382210075855255 0.33325713872909546
0.1954514980316162 0.5573027729988098 -0.49584123492240906
-0.21133184432983398 -0.7737328410148621 -0.40366455912590027
-0.26250940561294556 -0.4112439453601837 0.17183822393417358
0.3179032504558563 0.5304899215698242 0.17250636219978333
0.20962315797805786 0.31137606501579285 0.6102712154388428
0.1336982399225235 -0.6259490251541138 -0.14619582891464233
-0.07450148463249207 0.13970337808132172 0.889815092086792
0.03843097761273384 0.7101993560791016 -0.14894168078899384
-0.05288529768586159 -0.09482215344905853 -0.2169428914785385
0.3087296783924103 0.39517635107040405 -0.2169428914785385
-0.19087795913219452 -0.06897608935832977 -0.49584123492240906
-0.33369120955467224 -0.36849814653396606 0.24630992114543915
0.1928389072418213 0.36503246426582336 0.46076610684394836
-0.030688565224409103 0.10395520180463791 -0.2169428914785385
-0.2749035060405731 0.6800059676170349 -0.21198666095733643
0.347162127494812 0.590506374835968 0.12397073954343796
-0.26807311177253723 0.2535761594772339 0.6549451351165771
0.02077474072575569 -0.3480011224746704 0.3380447328090668
-0.3725144565105438 -0.6910520792007446 -0.45983776450157166
0.37121450901031494 0.4448155462741852 -0.45089390873908997
0.21102730929851532 0.3520249128341675 0.4834277927875519
-0.3725144565105438 -0.4593563973903656 -0.46961572766304016
0.29855775833129883 0.3832402527332306 0.42904454469680786
0.08384977281093597 0.41920194029808044 -0.2169428914785385
-0.13319292664527893 0.33917227387428284 0.5618447661399841
0.37121450901031494 -0.0462777242064476 -0.2519597113132477
-0.009886338375508785 -0.42774689197540283 0.14308683574199677
0.35652369260787964 0.4832552969455719 0.2547984719276428
0.24657845497131348 0.6862751245498657 -0.09890252351760864
-0.2910528779029846 -0.3513914942741394 -0.49584123492240906
0.0755968913435936 0.011217683553695679 0.8764089345932007
0.09574782848358154 0.9046721458435059 -0.4364050328731537
-0.3725144565105438 -0.31220543384552 -0.33876970410346985
0.16852612793445587 0.7257708311080933 -0.49584123492240906
0.16050925850868225 0.34507670998573303 -0.49584123492240906
0.06983441859483719 -0.3538845181465149 -0.49584123492240906
0.14886786043643951 0.8034266829490662 -0.24697861075401306
0.11064696311950684 0.5760228037834167 0.09317907691001892
0.36773309111595154 0.32323357462882996 0.5896130204200745
0.07410060614347458 0.48401549458503723 -0.2169428914785385
0.13576583564281464 -0.9659848213195801 -0.39856287837028503
-0.3725144565105438 0.725382387638092 -0.24753597378730774
0.13015270233154297 -0.2893446087837219 0.38421112298965454
-0.14060735702514648 -0.6112605929374695 -0.12060564756393433
-0.058086980134248734 0.8027490377426147 -0.49584123492240906
-0.34318459033966064 -0.39360350370407104 0.20257137715816498
0.3399326801300049 0.36803850531578064 -0.2169428914785385
-0.2967766523361206 0.6934609413146973 -0.11142154783010483
-0.28908613324165344 -0.5920795798301697 -0.1514589488506317
0.04489821940660477 -0.12465164065361023 0.7271639108657837
-0.16900749504566193 0.3059309720993042 -0.2169428914785385
-0.3075256049633026 -0.07810843735933304 0.7522264122962952
-0.12414246797561646 -0.02802509441971779 -0.2169428914785385
0.19311577081680298 -0.3113131523132324 -0.49584123492240906
-0.17344912886619568 -0.5607007145881653 -0.08854517340660095
0.15089057385921478 -0.9690864682197571 -0.38981372117996216
-0.3725144565105438 0.01353190653026104 0.8914077281951904
0.29919299483299255 0.8931018710136414 -0.40321075916290283
-0.04693557694554329 -0.9177862405776978 -0.45574694871902466
0.35214364528656006 0.013974140398204327 -0.49584123492240906
0.37121450901031494 0.2649782598018646 -0.40301379561424255
0.32996949553489685 -0.3269919753074646 0.3746469020843506
0.37121450901031494 0.8090243935585022 -0.3124917149543762
0.049769558012485504 -0.13073325157165527 0.7165685296058655
-0.2917294204235077 -0.5945819020271301 -0.09154806286096573
-0.10243925452232361 -0.05559533089399338 -0.49584123492240906
0.16452787816524506 -0.4704466462135315 0.06869535893201828
0.050625935196876526 -0.46235713362693787 0.0827888697385788
0.015642639249563217 -0.3113684058189392 0.4018661677837372
0.2799112796783447 -0.47710666060447693 -0.2169428914785385
-0.3725144565105438 0.37026888132095337 -0.41998061537742615
0.09260353446006775 -0.9911715388298035 -0.41193723678588867
0.37121450901031494 -0.5716606378555298 -0.44431692361831665
-0.21844013035297394 -0.4606952667236328 0.14170917868614197
-0.25379475951194763 0.16537481546401978 -0.49584123492240906
0.17481477558612823 0.3489914834499359 -0.2169428914785385
-0.03428654000163078 -0.4265882074832916 -0.2169428914785385
-0.3509722650051117 0.36729973554611206 0.5128411650657654
-0.28993088006973267 0.005343466531485319 -0.2169428914785385
-0.29905539751052856 0.2407090663909912 -0.49584123492240906
0.18691205978393555 0.30337730050086975 -0.2169428914785385
0.2679125964641571 -0.11845945566892624 0.7379518747329712
-0.3725144565105438 -0.15558214485645294 0.6401820778846741
-0.1600818634033203 0.2264532744884491 0.7582234740257263
0.37121450901031494 0.6885046362876892 -0.06300020217895508
0.3168479800224304 0.059867508709430695 -0.49584123492240906
-0.010745094157755375 -0.38596731424331665 -0.49584123492240906
0.37121450901031494 0.5767003297805786 -0.4023074209690094
0.23012135922908783 0.7542880773544312 -0.16136950254440308
-0.016316911205649376 0.42927590012550354 -0.49584123492240906
-0.3149060606956482 0.1899695098400116 -0.49584123492240906
0.039994362741708755 -0.4600846469402313 0.14277298748493195
0.22021420300006866 0.23655839264392853 0.6845934391021729
-0.31443676352500916 -0.601810097694397 -0.10414084047079086
-0.20592235028743744 -0.525429904460907 0.028928497806191444
0.056753505021333694 -0.36812084913253784 -0.2169428914785385
-0.3328924775123596 0.709183394908905 -0.08278835564851761
0.04354708641767502 -0.31191545724868774 -0.2169428914785385
0.37121450901031494 -0.2933015823364258 0.4169149398803711
0.23394428193569183 0.18654711544513702 -0.49584123492240906
-0.061681799590587616 -0.41685885190963745 0.16205598413944244
-0.01783759705722332 -0.2304653525352478 0.5428153872489929
0.049784913659095764 -0.5417800545692444 0.0004433324502315372
-0.20182280242443085 0.185739666223526 -0.49584123492240906
0.37121450901031494 0.5074374675750732 -0.29408466815948486
-0.21818877756595612 -0.0018529815133661032 -0.49584123492240906
-0.31650757789611816 0.43912389874458313 -0.49584123492240906
0.16728900372982025 0.4749301075935364 0.269302636384964
-0.24688024818897247 0.8727422952651978 -0.36774033308029175
-0.0638326033949852 0.6024038791656494 0.10324280709028244
-0.3725144565105438 -0.05464121326804161 -0.26348721981048584
0.17822706699371338 0.3537842035293579 -0.2169428914785385
-0.10815996676683426 0.4846761226654053 -0.2169428914785385
-0.07571204006671906 0.514353334903717 -0.2169428914785385
0.1277519166469574 -0.15754030644893646 0.6698653101921082
-0.34545063972473145 0.5655943155288696 0.16737234592437744
-0.037047818303108215 -0.40286943316459656 -0.2169428914785385
-0.14451400935649872 0.3657631576061249 -0.49584123492240906
-0.3725144565105438 0.21794594824314117 -0.2279597669839859
-0.14868029952049255 -0.501252293586731 0.07105079293251038
-0.35165998339653015 0.00479299807921052 0.9047009348869324
0.21509861946105957 -0.31453612446784973 0.34032243490219116
-0.3725144565105438 -0.4842270016670227 0.08999666571617126
0.36428117752075195 0.36509984731674194 0.46064871549606323
0.08105458319187164 0.9012636542320251 -0.42344772815704346
-0.3725144565105438 0.5290123224258423 -0.23037943243980408
0.07243799418210983 -0.20367063581943512 -0.49584123492240906
-0.25138500332832336 0.26691529154777527 -0.2169428914785385
0.04822120815515518 0.6825706958770752 -0.03642365708947182
-0.05819563940167427 -0.8481339812278748 -0.49584123492240906
-0.11561194807291031 -0.33537787199020386 0.3040120303630829
-0.12515214085578918 0.22059771418571472 0.7124001979827881
0.31343773007392883 -0.043014563620090485 -0.49584123492240906
0.21224410831928253 0.11959195882081985 -0.49584123492240906
-0.04650866240262985 0.45067501068115234 0.367584764957428
-0.1794099360704422 0.4308907687664032 -0.2169428914785385
0.31815865635871887 0.36271554231643677 0.46480265259742737
0.12069019675254822 -0.209592804312706 0.5791795253753662
-0.2623630166053772 -0.12028144299983978 0.6787526607513428
-0.3505491316318512 0.28233933448791504 0.6048340201377869
0.37121450901031494 -0.6052460074424744 -0.32192865014076233
-0.2049393206834793 -0.31184470653533936 -0.49584123492240906
-0.19773904979228973 -0.4249330163002014 0.20401407778263092
-0.16100125014781952 -0.5305402874946594 0.020025214180350304
0.24623382091522217 -0.058979567140340805 0.7855527997016907
-0.1927991807460785 -0.5449305176734924 -0.06107036769390106
-0.2674431800842285 -0.15074467658996582 0.6817046999931335
-0.1555623710155487 0.4482805132865906 0.3157314360141754
0.37121450901031494 0.08401620388031006 -0.3148879408836365
0.0032520622480660677 -0.7906435132026672 -0.42945989966392517
0.2619614899158478 0.6401150226593018 -0.018482400104403496
-0.31394723057746887 -0.4941897988319397 0.08335501700639725
-0.18704767525196075 0.700722873210907 -0.06804843246936798
0.11110863089561462 0.7112634181976318 -0.15317101776599884
-0.3725144565105438 -0.1971546709537506 -0.31642061471939087
0.37121450901031494 -0.9066672921180725 -0.47623127698898315
-0.24583707749843597 -0.15404513478279114 0.6759546399116516
0.03696916252374649 0.6929255723953247 -0.1104889065027237
-0.06375068426132202 0.7043126821517944 -0.07430262118577957
0.08515650033950806 0.23444822430610657 -0.2169428914785385
-0.26620012521743774 -0.43130987882614136 -0.2169428914785385
-0.3165820837020874 -0.7345028519630432 -0.49584123492240906
0.16497762501239777 -0.5867655277252197 -0.13452330231666565
0.18589124083518982 0.5844467282295227 0.13452787697315216
0.2934712767601013 0.43734732270240784 0.39080432057380676
-0.06855084747076035 -0.09915652871131897 0.7155565619468689
0.183588445186615 0.6967220306396484 -0.49584123492240906
-0.017880473285913467 -0.2803608775138855 0.3998625576496124
-0.07600732892751694 0.40346425771713257 0.4498351812362671
0.08252274990081787 -0.44264763593673706 -0.2169428914785385
0.14017663896083832 -0.15829546749591827 0.6125247478485107
-0.23286838829517365 0.19546304643154144 0.812214732170105
0.22778287529945374 0.041548702865839005 0.9155803918838501
-0.2698332965373993 0.44022896885871887 -0.49584123492240906
0.1155923530459404 -0.4243652820587158 0.14897824823856354
0.26783615350723267 0.5599913597106934 0.17713385820388794
-0.30462735891342163 0.2976687550544739 0.5781270265579224
-0.15818962454795837 0.9031081795692444 -0.4305401146411896
-0.15487289428710938 -0.44610926508903503 0.16712084412574768
0.14102600514888763 0.19348126649856567 0.8156673908233643
0.04615991190075874 0.702046811580658 -0.12637977302074432
0.010413968935608864 -0.6839993000030518 -0.24733087420463562
-0.19543945789337158 0.2799801528453827 -0.2169428914785385
-0.32602131366729736 0.3891803026199341 0.4186957776546478
0.3372785747051239 0.04010944068431854 -0.49584123492240906
-0.3235483169555664 0.9021299481391907 -0.4568675756454468
-0.1636192947626114 0.4289316236972809 0.40546610951423645
-0.010386909358203411 0.6650521755218506 -0.005902836564928293
0.1485612392425537 -0.15598450601100922 0.6725758910179138
-0.3725144565105438 0.06344232708215714 -0.2904033064842224
0.14331476390361786 0.18602898716926575 0.8286507725715637
-0.23506015539169312 -0.6284804344177246 -0.49584123492240906
-0.31326720118522644 -0.736154317855835 -0.49584123492240906
0.1037968248128891 0.008472789078950882 0.8750964999198914
-0.2753147482872009 -0.4922654330730438 0.03068271279335022
-0.056645944714546204 -0.01075395941734314 0.8956782817840576
0.09932072460651398 0.5519999265670776 -0.2169428914785385
0.3190358877182007 0.2676047086715698 0.6865295767784119
-0.3463958501815796 0.6203217506408691 0.016001461073756218
0.1278153955936432 0.594585657119751 -0.2169428914785385
-0.20213846862316132 -0.38519927859306335 0.2732381224632263
0.163410022854805 0.3113897442817688 0.5542223453521729
0.05155668407678604 -0.5498676300048828 -0.49584123492240906
-0.3725144565105438 0.3183940052986145 -0.4183163046836853
0.09289487451314926 -0.9583076238632202 -0.46073028445243835
-0.027056792750954628 -0.2714062035083771 0.47148826718330383
-0.3036693334579468 -0.5009289383888245 0.015589124523103237
-0.1965383142232895 -0.23504550755023956 -0.2169428914785385
0.37121450901031494 -0.21417543292045593 0.5186834931373596
0.08912765979766846 -0.9999990463256836 -0.3352261185646057
-0.06191178038716316 0.3644624650478363 0.5177841782569885
0.0042814332991838455 0.2752280831336975 0.6732481122016907
-0.3725144565105438 0.4562321901321411 -0.2996137738227844
0.37121450901031494 -0.07605607807636261 -0.22092577815055847
-0.3725144565105438 -0.44890522956848145 -0.3464972972869873
0.14132358133792877 0.9027410745620728 -0.4294514060020447
0.32476916909217834 0.7494214773178101 -0.1528908759355545
-0.007142259273678064 0.08139805495738983 0.8868168592453003
0.05958276987075806 0.4717905819416046 0.2747722268104553
-0.20620477199554443 -0.5185507535934448 -0.015111533924937248
-0.05247200280427933 -0.5195128917694092 -0.2169428914785385
0.09740093350410461 0.8174079060554504 -0.49584123492240906
0.37121450901031494 0.2434374988079071 -0.4935072362422943
0.2559070587158203 -0.34175050258636475 0.2929095923900604
-0.11173604428768158 0.5509659647941589 -0.49584123492240906
0.04941098392009735 0.6049540042877197 0.04277500510215759
0.2899537682533264 0.21603842079639435 -0.49584123492240906
0.37121450901031494 0.028173191472887993 -0.28251272439956665
-0.14003992080688477 -0.2086363434791565 0.5248209238052368
-0.3596949577331543 -0.5391648411750793 -0.21673309803009033
0.09037545323371887 0.4881151020526886 -0.2169428914785385
-0.15487609803676605 0.8758368492126465 -0.48897436261177063
0.2490282952785492 -0.1921873390674591 0.6095033288002014
-0.29549410939216614 0.6228742599487305 0.06757945567369461
-0.03651032969355583 0.530868649482727 0.22787153720855713
-0.259273499250412 0.6268226504325867 0.00467561325058341
-0.0014266361249610782 0.08210910111665726 -0.2169428914785385
0.37121450901031494 0.2115965038537979 -0.4033920466899872
-0.009524289518594742 0.9005027413368225 -0.4205308258533478
0.2815016210079193 -0.22426161170005798 0.5536235570907593
-0.3116566836833954 0.6767177581787109 -0.49584123492240906
0.37121450901031494 0.6300241947174072 -0.27334877848625183
-0.09728343784809113 -0.44984689354896545 -0.49584123492240906
-0.055438969284296036 -0.8738322854042053 -0.46785956621170044
0.09421270340681076 0.3560793995857239 0.4763641059398651
0.037797167897224426 0.4681094288825989 -0.49584123492240906
-0.3227520287036896 -0.2987269163131714 0.4238901734352112
0.30273517966270447 0.4199899435043335 0.42104414105415344
-0.3201868236064911 -0.9887081980705261 -0.4183105528354645
0.36598649621009827 0.5257373452186584 0.18078619241714478
0.24536758661270142 0.615295946598053 0.08078233152627945
0.1002686396241188 -0.5992007851600647 -0.09959497302770615
-0.32122108340263367 0.19932299852371216 -0.2169428914785385
-0.09572762995958328 -0.043860796838998795 -0.49584123492240906
0.3649970591068268 0.15628063678741455 0.8743636608123779
-0.08270521461963654 -0.03507479280233383 0.8271995782852173
0.1723800152540207 -0.9824041724205017 -0.4304165542125702
-0.3525393009185791 -0.43303370475769043 0.13387608528137207
-0.10498177260160446 -0.45400410890579224 0.09734153002500534
0.22233426570892334 0.04530154913663864 -0.2169428914785385
-0.22106097638607025 -0.9811642169952393 -0.4324353039264679
-0.3725144565105438 0.6139209270477295 -0.22467465698719025
-0.3725144565105438 0.7189096808433533 -0.3852306306362152
-0.28359878063201904 0.21820007264614105 -0.49584123492240906
0.3054594397544861 -0.43435367941856384 -0.2169428914785385
0.19331079721450806 0.6683157086372375 -0.0676136463880539
-0.15390974283218384 -0.5714506506919861 -0.20401567220687866
-0.2086159735918045 0.4837980270385742 0.30987778306007385
