0.09225691854953766 0.6905342936515808 0.04182170704007149
0.23352861404418945 -0.02039153501391411 0.003109774086624384
-0.14130613207817078 0.4423489272594452 0.012578153982758522
-0.09951701015233994 -0.08741005510091782 -0.13908103108406067
0.0765860453248024 0.4423489272594452 0.04206832870841026
0.11053701490163803 -0.5347254872322083 0.0015253700548782945
0.18830396234989166 0.06426223367452621 -0.1030002012848854
0.05836251378059387 -0.8061045408248901 0.07326361536979675
0.08559062331914902 -0.8827226161956787 0.03882170841097832
-0.11913490295410156 -0.5347254872322083 0.06425786018371582
0.09961385279893875 0.5402016043663025 -0.0419275239109993
0.11527655273675919 -0.5347254872322083 -0.03815193474292755
-0.21475040912628174 0.037720393389463425 0.0659981295466423
-0.14354731142520905 0.6465277671813965 0.014788012951612473
-0.19486354291439056 0.20241014659404755 0.09396612644195557
0.02024254947900772 -0.41893622279167175 -0.13816556334495544
0.12241096049547195 0.6205179691314697 -0.03113473393023014
0.13263006508350372 0.4062986969947815 0.1339704394340515
0.14328958094120026 0.6933873891830444 0.009483763948082924
-0.1379702389240265 -0.34504058957099915 0.010997002013027668
-0.004344438202679157 0.10099315643310547 -0.13963495194911957
0.09312756359577179 -0.5691864490509033 -0.012938066385686398
0.014166068285703659 0.4423489272594452 -0.06993667781352997
0.08629658073186874 -0.8767952919006348 0.03710461035370827
0.20006372034549713 0.33272799849510193 -0.0906827449798584
0.08481018990278244 -0.979126513004303 0.04037013277411461
-0.08976034820079803 -0.6575533151626587 0.019055623561143875
0.05738402530550957 0.3222813606262207 0.13952915370464325
-0.1230042353272438 0.637594997882843 -0.008570165373384953
-0.09152456372976303 -0.5349393486976624 -0.0019821191672235727
-0.06685033440589905 0.31948322057724 0.13952915370464325
-0.0005020122625865042 -0.9999989867210388 0.014331839978694916
-0.13836374878883362 -0.3020887076854706 -0.11377792060375214
0.09994494915008545 -0.031377069652080536 0.1392536461353302
0.22667597234249115 -0.2160743623971939 -0.04302438721060753
0.06039071083068848 0.6803103685379028 0.027863504365086555
0.16437967121601105 0.020029239356517792 0.1204986646771431
-0.19529834389686584 0.4423489272594452 -0.025082681328058243
0.22251403331756592 -0.20366211235523224 -0.05462158843874931
0.2030404508113861 0.15591421723365784 0.0870376005768776
0.19640223681926727 -0.041728675365448 -0.09489776194095612
-0.015419830568134785 -0.3215462863445282 -0.13845817744731903
-0.04729677364230156 0.36401239037513733 0.13952915370464325
-0.2174462527036667 0.3020329773426056 -0.06082506105303764
-0.1646227091550827 -0.3020887076854706 -0.05097094178199768
-0.06516331434249878 0.49546775221824646 -0.0419275239109993
0.004699562676250935 -0.8430183529853821 0.09284982085227966
-0.024165671318769455 0.5425426363945007 0.027863504365086555
-0.19171476364135742 -0.3020887076854706 -0.03585880249738693
0.14932288229465485 0.2620878517627716 -0.12816952168941498
0.0626462996006012 -0.4276379644870758 0.12505760788917542
0.020212756469845772 -0.9963281154632568 0.09091290831565857
0.09914721548557281 0.2085079401731491 0.13921909034252167
0.10025786608457565 0.6916179656982422 -0.0419275239109993
0.2165999412536621 -0.2734924852848053 0.06664658337831497
-0.09366431087255478 -0.05276783928275108 -0.13955065608024597
0.049136266112327576 0.6731597185134888 -0.027969321236014366
0.08218034356832504 -0.6320626139640808 0.04524147883057594
-0.03299735113978386 -0.9999989867210388 -0.012257331050932407
-0.03239399194717407 -0.9999989867210388 -0.0271918848156929
0.08182462304830551 0.11998055130243301 -0.13963495194911957
-0.05627746507525444 -0.39976656436920166 0.12706680595874786
-0.0639241635799408 -0.5663807392120361 0.06635486334562302
-0.09153413027524948 -0.6171194911003113 0.006130511872470379
-0.10820768028497696 0.4423489272594452 0.07161188870668411
-0.13371865451335907 -0.3434385061264038 -0.035651303827762604
-0.01208078395575285 -0.06463755667209625 -0.13963495194911957
-0.0042989375069737434 0.4423489272594452 -0.019171202555298805
0.12280838936567307 0.5066627860069275 -0.03073730506002903
-0.1374940127134323 0.6815020442008972 0.04182170704007149
0.16986380517482758 -0.29714182019233704 0.11696945875883102
-0.03207940608263016 0.620690107345581 -0.0419275239109993
0.0510980449616909 0.4986576437950134 -0.0419275239109993
-0.035506680607795715 -0.434963196516037 0.13460606336593628
-0.16511563956737518 -0.010238215327262878 -0.11872272193431854
-0.14502184092998505 0.5884195566177368 -0.0062924278900027275
0.09367413818836212 -0.9695127010345459 0.006253026891499758
0.08727331459522247 -0.5709740519523621 0.03460021689534187
-0.08091360330581665 -0.34929588437080383 -0.11272481828927994
-0.09648556262254715 0.2089899331331253 0.1392277479171753
-0.21846844255924225 0.4281012713909149 -0.05853372812271118
0.02704470418393612 0.3358607292175293 0.13952915370464325
-0.20678210258483887 -0.11008081585168839 -0.07905882596969604
-0.22677037119865417 -0.17669358849525452 0.035440195351839066
-0.0829317644238472 0.4092969000339508 0.13952915370464325
0.02645423449575901 -0.9910547733306885 0.08937183022499084
-0.13199383020401 -0.34456393122673035 -0.04198547452688217
0.0030435053631663322 -0.9957961440086365 -0.0930003896355629
0.23256751894950867 0.1583099514245987 0.017674671486020088
-0.20756588876247406 0.078102245926857 0.07799970358610153
-0.1756354570388794 -0.04271635040640831 0.11139848828315735
-0.23092007637023926 0.2964174151420593 0.010935736820101738
-0.2223183810710907 -0.26674261689186096 -0.04914456978440285
0.21113653481006622 -0.13772094249725342 -0.07605016231536865
-0.21024851500988007 0.3110344707965851 0.07375471293926239
0.22108972072601318 -0.030040796846151352 -0.05805628001689911
0.041877251118421555 -0.8179420828819275 -0.08365035802125931
-0.2150648683309555 0.4204467236995697 0.06533035635948181
-0.02712603472173214 -0.085931695997715 -0.13963495194911957
-0.031134124845266342 -0.18877838551998138 0.13952915370464325
0.06570343673229218 -0.4720577299594879 -0.12367252260446548
0.028281399980187416 -0.751688539981842 0.08884639292955399
-0.2051190733909607 -0.2083289921283722 -0.08143319189548492
-0.08561057597398758 -0.7792746424674988 0.03295784816145897
-0.021067043766379356 0.4026220738887787 0.13952915370464325
0.20735974609851837 0.32159659266471863 -0.08164766430854797
-0.03651612251996994 0.6809297800064087 -0.0419275239109993
0.039065033197402954 0.5940796136856079 -0.027969321236014366
0.021891038864850998 -0.52064448595047 0.13790591061115265
-0.1377255916595459 0.6175530552864075 0.04182170704007149
0.20759736001491547 0.28533029556274414 -0.08120911568403244
0.053931303322315216 0.6864882111549377 -0.027969321236014366
-0.038292400538921356 -0.5073312520980835 0.1336691528558731
-0.11987306922674179 -0.20764926075935364 0.1366424262523651
0.06787484884262085 0.28662383556365967 -0.13963495194911957
-0.21501681208610535 0.15757083892822266 0.06570442020893097
0.19821931421756744 0.4423489272594452 -0.05407146364450455
-0.11082381755113602 0.15417946875095367 -0.13824258744716644
0.11252740025520325 0.721513032913208 -0.034097250550985336
0.11059897392988205 -0.5347254872322083 -0.0633593276143074
0.026479080319404602 0.03891346976161003 0.13952915370464325
0.05928456410765648 0.4898345470428467 -0.0419275239109993
-0.09139865636825562 -0.8314357399940491 -0.008567295037209988
0.022270217537879944 -0.56382817029953 -0.09060658514499664
0.22936171293258667 -0.008417024277150631 0.03431221470236778
-0.0916537418961525 -0.7012320756912231 0.0006816995446570218
0.11583683639764786 0.5817744135856628 0.027863504365086555
-0.06954355537891388 0.17473508417606354 -0.13963495194911957
0.2330736219882965 0.021700773388147354 0.01159004494547844
0.022758901119232178 0.523248016834259 -0.027969321236014366
0.09249275177717209 -0.6937556266784668 0.016927668824791908
-0.009954072535037994 0.337873250246048 -0.13963495194911957
-0.16565600037574768 -0.2873299717903137 0.11826249212026596
-0.011373103596270084 0.04616471752524376 -0.13963495194911957
0.026663459837436676 0.4423489272594452 -0.08411218225955963
0.09831124544143677 -0.40183010697364807 -0.10016794502735138
-0.2266688495874405 0.15106728672981262 -0.03597211465239525
0.21425482630729675 0.3291698396205902 -0.07070393115282059
-0.21335546672344208 -0.07727092504501343 -0.06831914186477661
-0.2310117483139038 0.16013658046722412 0.008394133299589157
-0.06186622008681297 0.6844894289970398 -0.0419275239109993
0.010912645608186722 0.4265041947364807 -0.13963495194911957
0.1541786789894104 -0.1549161821603775 -0.12586139142513275
0.05051417276263237 -0.5208853483200073 -0.13052022457122803
-0.1600644439458847 0.4277664124965668 0.12163153290748596
0.1343906819820404 0.5651292204856873 0.04182170704007149
0.02093701995909214 -0.4036019444465637 -0.13798078894615173
-0.17075301706790924 -0.18424981832504272 -0.11489002406597137
0.20500455796718597 -0.19057762622833252 0.08457553386688232
0.09025888890028 0.4756562411785126 0.027863504365086555
0.04789690300822258 0.4423489272594452 -0.05998775735497475
0.09667060524225235 -0.34252551198005676 0.10162431001663208
0.020546765998005867 0.38924694061279297 0.13952915370464325
0.2266111820936203 -0.01184749137610197 0.04361044988036156
0.032605089247226715 0.15842141211032867 0.13952915370464325
-0.0978345200419426 -0.5347254872322083 0.05767562612891197
-0.14142921566963196 -0.24568308889865875 -0.13037139177322388
0.1148308664560318 0.5124272704124451 -0.0375199131667614
-0.08741480112075806 0.6876251101493835 0.027863504365086555
0.12005311250686646 0.4423489272594452 0.07662726938724518
0.13521790504455566 0.2447148710489273 -0.13330833613872528
-0.2009226530790329 0.05502787232398987 0.08678194880485535
0.04789336025714874 -0.6522263288497925 0.08013548702001572
0.06837128102779388 -0.2270665019750595 0.13952915370464325
0.06981660425662994 0.04333856701850891 0.13952915370464325
-0.22271676361560822 0.08566600829362869 -0.048671871423721313
0.20014232397079468 -0.2864173948764801 -0.09052171558141708
0.20988573133945465 0.4423489272594452 0.02146567404270172
0.054443977773189545 -0.9999989867210388 -0.044480100274086
-0.13484743237495422 -0.4417426288127899 -0.03132444620132446
-0.05562695488333702 -0.9999989867210388 -0.01662549003958702
0.10141707211732864 -0.5319238305091858 0.09699385613203049
-0.003586234524846077 -0.9999989867210388 -0.08953239023685455
0.18834124505519867 -0.2528690695762634 -0.102901391685009
-0.2306859940290451 -0.1702239215373993 -0.01485174335539341
-0.11926145851612091 0.5490975975990295 -0.03205281123518944
0.20419569313526154 -0.079337477684021 -0.08590443432331085
0.053800780326128006 -0.7245226502418518 0.07652468979358673
0.2286367565393448 -0.3020887076854706 -0.013428868725895882
-0.059466566890478134 0.169332355260849 -0.13963495194911957
0.137923464179039 -0.3303331732749939 -0.02655056118965149
0.09431763738393784 -0.1074516698718071 0.13952234387397766
-0.14092899858951569 -0.2568649351596832 0.13043907284736633
-0.19202671945095062 -0.17829568684101105 0.09723091125488281
0.0645778551697731 -0.2985847592353821 -0.13963495194911957
0.036202363669872284 0.24707834422588348 0.13952915370464325
-0.19725774228572845 0.13794876635074615 -0.09134716540575027
0.14010782539844513 -0.44295093417167664 0.011447305791079998
-0.22486159205436707 -0.2576473653316498 -0.042400069534778595
-0.23101767897605896 0.30794447660446167 0.009206172078847885
0.01999242603778839 -0.68430495262146 0.09090196341276169
-0.04376702755689621 -0.9738264679908752 0.08143211901187897
-0.016665372997522354 0.38770341873168945 0.13952915370464325
0.10236123204231262 0.4974120259284973 0.027863504365086555
-0.10599357634782791 -0.04164714366197586 0.1387196183204651
0.03332637622952461 -0.11984553188085556 0.13952915370464325
-0.15696924924850464 0.7130494713783264 0.010171419940888882
0.10554631799459457 -0.4639652967453003 0.09230368584394455
0.08116069436073303 0.6480223536491394 0.027863504365086555
0.08950328826904297 0.28693732619285583 -0.13963495194911957
-0.10813823342323303 0.32377883791923523 0.1385420858860016
-0.0042376089841127396 -0.6830056309700012 0.09263845533132553
-0.031138811260461807 -0.4039916694164276 -0.13577470183372498
-0.23000723123550415 -0.17211636900901794 -0.019890088587999344
-0.16475561261177063 0.4423489272594452 0.11766617000102997
-0.22823810577392578 0.2908133268356323 0.02935110777616501
-0.15885204076766968 0.16332939267158508 -0.1225363090634346
-0.2241060584783554 -0.008396768942475319 0.04448787495493889
-0.12015672028064728 0.469875693321228 -0.011417674832046032
0.051372431218624115 -0.21105444431304932 -0.13963495194911957
0.15460678935050964 0.20150621235370636 0.12566711008548737
0.22152025997638702 0.097303107380867 0.05646999925374985
0.0673828274011612 -0.36572790145874023 -0.12273475527763367
0.10808315873146057 -0.40165063738822937 0.08930353820323944
0.06356634944677353 -0.5942279100418091 -0.06877852976322174
0.2292494922876358 -0.3020887076854706 0.02256077155470848
-0.15499001741409302 -0.18773049116134644 -0.12442577630281448
-0.13840775191783905 -0.39132657647132874 -0.0017699620220810175
-0.15448257327079773 0.4423489272594452 0.06315149366855621
-0.23099763691425323 0.3144453167915344 -0.009852273389697075
-0.122203528881073 -0.47172796726226807 -0.06504666805267334
-0.0524255633354187 0.4423489272594452 -0.054306529462337494
0.04361668974161148 0.29880771040916443 -0.13963495194911957
-0.10233001410961151 0.6252349615097046 -0.04141445457935333
0.06511037796735764 0.06854681670665741 -0.13963495194911957
0.15855157375335693 -0.1542695015668869 -0.12384957820177078
0.08591040968894958 -0.6224147081375122 -0.03800317645072937
-0.23147958517074585 -0.027948159724473953 0.00100103544536978
-0.20418547093868256 0.25639694929122925 -0.08297572284936905
-0.03870310261845589 0.6366977691650391 -0.0419275239109993
0.22716274857521057 0.39181941747665405 -0.04216741397976875
0.16014446318149567 0.23518355190753937 0.12292550504207611
0.05026305839419365 0.4077703654766083 0.13952915370464325
-0.09177631884813309 -0.9465970993041992 -0.00326951639726758
0.1995493769645691 -0.23601575195789337 -0.09147384017705917
-0.20506595075130463 -0.14938853681087494 -0.08162274211645126
0.22792039811611176 0.03497808426618576 -0.03912394121289253
-0.13334761559963226 -0.5090937614440918 -0.03694499656558037
0.022865498438477516 0.5160572528839111 -0.027969321236014366
-0.1940605789422989 0.2817595303058624 0.09495513141155243
-0.22050625085830688 0.07164733111858368 -0.05387875810265541
0.04824718460440636 0.1940644085407257 -0.13963495194911957
-0.2205287665128708 -0.057163555175065994 0.05419066548347473
0.046723753213882446 0.7005389928817749 -0.0419275239109993
0.06015893816947937 -0.10986088961362839 0.13952915370464325
-0.06971072405576706 -0.21887198090553284 0.13952915370464325
-0.13800185918807983 0.6548011898994446 0.027863504365086555
-0.04925663024187088 0.06701420247554779 0.13952915370464325
0.12812845408916473 -0.05586250498890877 -0.13525362312793732
-0.010744656436145306 -0.02657056786119938 0.13952915370464325
-0.04605613276362419 0.5954539775848389 -0.027969321236014366
-0.1092778742313385 0.45534229278564453 0.04182170704007149
0.06778937578201294 0.4423489272594452 0.07015147060155869
-0.09220943599939346 0.6401221752166748 -0.0419275239109993
0.038311608135700226 0.21697208285331726 0.13952915370464325
0.07378556579351425 -0.7605149149894714 -0.05800827592611313
0.2216176837682724 0.3409102261066437 -0.05670692399144173
0.15139412879943848 -0.3020887076854706 0.11571386456489563
-0.21414019167423248 -0.031138913705945015 0.06693737208843231
0.20050084590911865 0.364488810300827 0.09025829285383224
0.23359277844429016 0.4355163276195526 0.005104555282741785
-0.08003522455692291 0.5276622176170349 -0.0419275239109993
0.006672824267297983 0.5121771693229675 0.04182170704007149
-0.22537975013256073 -0.2507587969303131 -0.040557388216257095
0.2094695270061493 -0.09042110294103622 -0.0784800574183464
0.07030649483203888 0.14313682913780212 0.13952915370464325
-0.003292155684903264 0.6006478071212769 -0.027969321236014366
-0.11883623152971268 0.05001436173915863 0.13686585426330566
0.09260798990726471 0.4423489272594452 0.12141680717468262
0.1355719268321991 0.5304175615310669 0.0017661048332229257
0.08780020475387573 0.3909117877483368 0.13952915370464325
-0.059587378054857254 0.39659515023231506 -0.13963495194911957
-0.11968928575515747 -0.4924554228782654 -0.06973046064376831
0.025472117587924004 0.4423489272594452 0.1219499334692955
0.024309542030096054 0.5747525691986084 0.027863504365086555
0.029464518651366234 -0.5347254872322083 0.1123448833823204
0.02684961073100567 -0.5003990530967712 0.1370002031326294
-0.09095116704702377 -0.8707839250564575 0.011744149029254913
-0.00734143890440464 0.5536242127418518 0.027863504365086555
0.19214272499084473 -0.3020887076854706 -0.03218663111329079
-0.02733113057911396 0.4494990408420563 -0.0419275239109993
0.16047188639640808 0.6511500477790833 0.02193335071206093
0.19722315669059753 0.015500538982450962 -0.09389952570199966
0.0021100600715726614 -0.7189939022064209 -0.09297625720500946
-0.1335737109184265 0.08507934957742691 0.13300089538097382
-0.1530928611755371 0.053736452013254166 -0.12549088895320892
-0.08287223428487778 -0.12954367697238922 -0.13963495194911957
-0.08799412101507187 -0.17351669073104858 -0.13963495194911957
0.13394327461719513 0.13036692142486572 0.13355986773967743
-0.02025330252945423 -0.5021985173225403 0.1377876102924347
0.05383145436644554 0.3773418366909027 -0.13963495194911957
0.12211035937070847 -0.0278630331158638 -0.13669675588607788
-0.15824046730995178 0.7172849774360657 0.031346384435892105
0.12513862550258636 0.42141908407211304 -0.1359945833683014
0.02037404291331768 -0.4263029396533966 0.13795334100723267
0.026994146406650543 -0.9770326018333435 0.08920884132385254
-0.08423716574907303 -0.6861010193824768 0.036089472472667694
-0.08645283430814743 0.4423489272594452 0.05123685672879219
-0.1136973425745964 -0.039848726242780685 0.13771839439868927
0.02108476683497429 -0.17340536415576935 -0.13963495194911957
-0.09044539928436279 -0.8933426141738892 -0.01574459671974182
-0.04741235077381134 0.5142050981521606 0.027863504365086555
-0.09635426849126816 0.4013840854167938 0.1393178552389145
0.14128607511520386 -0.3020887076854706 0.06772571802139282
0.047471582889556885 -0.44600820541381836 -0.13154573738574982
-0.21837681531906128 0.05960071086883545 -0.05863751843571663
-0.036953844130039215 -0.6583799123764038 -0.08480431884527206
-0.007355270441621542 -0.028854889795184135 0.13952915370464325
0.11650579422712326 0.4423489272594452 -0.1303640604019165
0.19238166511058807 0.2730979919433594 -0.09910983592271805
0.15164676308631897 0.09627317637205124 -0.1270488202571869
0.2029355764389038 -0.3020887076854706 -0.01951920986175537
-0.132059708237648 0.09873290359973907 -0.13351038098335266
0.07560969144105911 -0.8948099613189697 0.05542897433042526
0.10714039951562881 0.22423826158046722 0.13867413997650146
-0.21042686700820923 -0.3020887076854706 0.00396393146365881
0.16047188639640808 0.7124221920967102 0.025156253948807716
-0.02105611376464367 -0.6384690403938293 -0.09022669494152069
0.03014349564909935 -0.6381460428237915 -0.08832206577062607
0.11982908844947815 -0.20713678002357483 0.13706237077713013
-0.0758456364274025 -0.6249275207519531 -0.052251968532800674
0.11005134135484695 0.4423489272594452 -0.10583293437957764
-0.22979578375816345 0.13708259165287018 0.02051951177418232
0.12043086439371109 0.6904444098472595 0.04182170704007149
0.08416136354207993 0.41228485107421875 0.13952915370464325
-0.02177899144589901 -0.09931156784296036 0.13952915370464325
0.2047179788351059 -0.08742629736661911 0.0850088968873024
-0.07086547464132309 -0.9794974327087402 -0.058933135122060776
0.05586293712258339 0.5857702493667603 -0.0419275239109993
-0.07760024815797806 -0.6366205215454102 -0.04932451620697975
0.2327878326177597 -0.14648093283176422 -0.015385283157229424
0.014278504066169262 -0.5347254872322083 -0.11961634457111359
0.0512014776468277 0.563457727432251 0.04182170704007149
0.19537565112113953 -0.07728014141321182 -0.0957353264093399
-0.023566827178001404 -0.36762481927871704 -0.1374177783727646
0.06606937199831009 -0.3013029098510742 -0.13963495194911957
0.025102399289608 0.524343729019165 -0.0419275239109993
0.11539585143327713 -0.37048643827438354 0.07968725264072418
0.09134654700756073 -0.9672864675521851 -0.021712960675358772
-0.0701749324798584 0.02487870305776596 0.13952915370464325
0.20315633714199066 0.16248421370983124 -0.08687356859445572
-0.1311502605676651 0.721513032913208 0.030378658324480057
-0.23115427792072296 -0.09122536331415176 0.008248057216405869
-0.08558111637830734 -0.5507063865661621 -0.03376654163002968
0.07812055945396423 0.4748380184173584 -0.0419275239109993
-0.1172446757555008 -0.3966898024082184 0.07379301637411118
0.06604448705911636 -0.8220577239990234 -0.06652618199586868
-0.0851433277130127 0.5057554841041565 0.027863504365086555
-0.015424871817231178 0.5115864276885986 0.027863504365086555
-0.0553753487765789 -0.5862646102905273 -0.07383023947477341
-0.044834982603788376 -0.6895586848258972 -0.08082826435565948
-0.20061302185058594 0.1734286993741989 -0.08737477660179138
-0.19876644015312195 -0.13044023513793945 -0.08974695205688477
-0.005312349647283554 0.6426458358764648 0.027863504365086555
-0.22588279843330383 0.3342881202697754 -0.03898270055651665
0.08461746573448181 -0.6424165368080139 0.040785402059555054
0.22654862701892853 0.02555718645453453 -0.04368695989251137
0.13972288370132446 0.015730557963252068 0.13185569643974304
-0.1257881373167038 0.6333410143852234 0.027863504365086555
0.07954923808574677 0.4770395755767822 -0.0419275239109993
0.08089976757764816 0.6705304980278015 -0.027969321236014366
-0.1074509471654892 0.4557821750640869 -0.04039584472775459
-0.09179715067148209 -0.9237443208694458 0.00018852122593671083
0.03311978653073311 0.5706725120544434 -0.0419275239109993
-0.2182828187942505 -0.13696224987506866 -0.059355609118938446
0.033744823187589645 0.5533544421195984 -0.0419275239109993
0.10412560403347015 0.4423489272594452 0.13886649906635284
0.13732172548770905 0.46450740098953247 -0.0162239670753479
0.03499499335885048 -0.5491153001785278 -0.08659452199935913
0.0746145248413086 -0.7422954440116882 -0.05705059692263603
-0.18982616066932678 -0.3020887076854706 -0.09518467634916306
0.08085115998983383 -0.2865764796733856 0.13952915370464325
0.14596349000930786 0.4994223415851593 0.04182170704007149
0.13714468479156494 0.09350641816854477 0.13254472613334656
0.07097189128398895 -0.5303516387939453 -0.12073250859975815
0.041072845458984375 0.5232875943183899 0.027863504365086555
0.11479081958532333 -0.4750616252422333 0.08068187534809113
0.03309610113501549 0.4423489272594452 0.04632587730884552
0.22959759831428528 0.024061786010861397 -0.03355410695075989
-0.055411480367183685 -0.424609512090683 -0.1276407390832901
-0.12011108547449112 0.12826204299926758 0.13653342425823212
0.1935821920633316 -0.10855932533740997 0.09753286838531494
-0.15438571572303772 -0.23672030866146088 -0.12474194169044495
-0.07953380048274994 0.5933369994163513 0.027863504365086555
-0.17207112908363342 0.1464567482471466 -0.11428886651992798
0.07394368946552277 -0.5347254872322083 -0.06646367162466049
0.026333125308156013 -0.4956260621547699 -0.13729317486286163
0.15129685401916504 0.5164870619773865 -0.00224883621558547
-0.2294853776693344 -0.1323222517967224 -0.023290758952498436
-0.007463687099516392 0.6943418383598328 -0.0419275239109993
-0.15691611170768738 -0.20079760253429413 -0.12349922209978104
-0.13957440853118896 0.6221486330032349 0.00800001434981823
-0.11179857701063156 0.5547828674316406 0.04182170704007149
-0.1777798980474472 0.006324926391243935 0.10974808037281036
-0.10072976350784302 0.23203228414058685 -0.13902942836284637
-0.12283620983362198 0.5606549382209778 0.027863504365086555
-0.05605404078960419 -0.9999989867210388 -0.05015711113810539
-0.08127310872077942 -0.058016397058963776 0.13952915370464325
-0.13478833436965942 -0.0602228119969368 -0.13266849517822266
0.08579032123088837 0.24128736555576324 0.13952915370464325
-0.020752564072608948 -0.4048439562320709 0.13756942749023438
0.11944790184497833 0.4423489272594452 0.020488958805799484
-0.21251140534877777 -0.10369452089071274 -0.06998984515666962
-0.06611152738332748 -0.9825493693351746 -0.06435023248195648
0.1171867847442627 -0.32038772106170654 -0.07721387594938278
0.055095747113227844 -0.9699240326881409 0.07560034841299057
-0.030104903504252434 0.5244470238685608 0.027863504365086555
0.08154134452342987 -0.6637476086616516 0.04606809839606285
0.19909745454788208 -0.1361473649740219 -0.0920688658952713
0.0041847676038742065 0.011586550623178482 0.13952915370464325
0.09737937897443771 0.7182565331459045 0.04182170704007149
-0.21682435274124146 -0.09608140587806702 -0.061789385974407196
0.05983426049351692 -0.9237594604492188 -0.07192027568817139
0.034184399992227554 0.08496721088886261 -0.13963495194911957
0.19211815297603607 0.2535625100135803 -0.09921261668205261
0.14973194897174835 0.1330573558807373 0.12770679593086243
-0.10600301623344421 -0.3697268068790436 -0.08939435333013535
-0.22505171597003937 -0.0822870135307312 0.041699353605508804
-0.14105123281478882 -0.3020887076854706 -0.02289120852947235
0.04266985133290291 0.6788248419761658 -0.0419275239109993
0.02699977159500122 -0.7755865454673767 0.08913803845643997
0.13852272927761078 -0.38122135400772095 0.023879794403910637
-0.2187172770500183 0.08984999358654022 -0.05786169320344925
-0.18018029630184174 0.24472440779209137 -0.10809782147407532
0.11144222319126129 0.29046061635017395 0.13832791149616241
0.18530437350273132 0.4423489272594452 0.054426372051239014
-0.1772858202457428 0.20516616106033325 0.11021248996257782
0.07143468409776688 -0.055331338196992874 0.13952915370464325
-0.08164631575345993 -0.20875023305416107 0.13952915370464325
0.14097242057323456 0.5413129329681396 -0.012573272921144962
-0.08050885796546936 -0.20663413405418396 0.13952915370464325
-0.0807102844119072 -0.5910634398460388 -0.04431312903761864
-0.2257775515317917 -0.15965422987937927 0.03894438222050667
0.09032510221004486 -0.8457051515579224 0.025664109736680984
-0.18143154680728912 -0.3020887076854706 0.03538260608911514
-0.0910867229104042 -0.6911560893058777 -0.01128989178687334
-0.2208436131477356 0.034368421882390976 -0.05305732041597366
-0.06422635167837143 -0.7671412229537964 0.0660422295331955
0.14066223800182343 0.39375078678131104 -0.13159070909023285
-0.23023727536201477 -0.05724077299237251 0.01815720833837986
0.1373322308063507 0.4423489272594452 -0.07971396297216415
-0.11107185482978821 -0.20543059706687927 0.1381196677684784
0.1269758939743042 0.5542336106300354 -0.026569807901978493
-0.12046892940998077 0.5474502444267273 -0.011105464771389961
-0.036678969860076904 0.3168429434299469 0.13952915370464325
0.06619124859571457 0.4423489272594452 0.12287091463804245
-0.03903409466147423 -0.7759702205657959 0.08350327610969543
-0.06283540278673172 0.34834185242652893 0.13952915370464325
-0.16950669884681702 0.014245112426578999 0.11578284204006195
-0.01126942504197359 -0.40510034561157227 -0.13905738294124603
-0.16922889649868011 0.3518194854259491 0.11586851626634598
0.14023202657699585 -0.46687451004981995 0.008601334877312183
-0.226408913731575 -0.15604743361473083 0.0366433784365654
-0.08935169130563736 -0.45993414521217346 0.10618311166763306
0.05163506790995598 0.45409706234931946 0.027863504365086555
0.04470682516694069 -0.004389128182083368 0.13952915370464325
0.15748076140880585 0.4423489272594452 0.09487743675708771
-0.03581283986568451 0.6767537593841553 0.04182170704007149
-0.17092359066009521 0.0018337592482566833 0.11484899371862411
0.05299442261457443 -0.18441981077194214 0.13952915370464325
0.012657789513468742 -0.8179782032966614 0.09225037693977356
-0.06901831924915314 -0.5893526077270508 -0.061063751578330994
-0.11173941940069199 0.2901824116706848 -0.13813531398773193
-0.1307830959558487 -0.22475963830947876 -0.1339019387960434
-0.09920395910739899 0.5887077450752258 0.04182170704007149
-0.08193375170230865 -0.4081914722919464 -0.11208094656467438
0.07052217423915863 -0.40031978487968445 0.12098494172096252
-0.15673495829105377 -0.003444887697696686 -0.1234850138425827
-0.1706821173429489 0.10622183233499527 -0.11521819978952408
0.2279662787914276 0.056751955300569534 0.03889065980911255
-0.03947250917553902 -0.20922528207302094 0.13952915370464325
-0.13442562520503998 0.04293796420097351 0.13280047476291656
-0.09434971213340759 0.4423489272594452 -0.015134391374886036
-0.1605972796678543 -0.3020887076854706 -0.018707238137722015
0.07311029732227325 -0.05003408342599869 0.13952915370464325
0.16047188639640808 0.6079182028770447 0.04160722345113754
0.18823866546154022 0.11345130205154419 0.10297231376171112
0.19721077382564545 -0.19513998925685883 -0.09396367520093918
0.21989808976650238 -0.3020887076854706 -0.0011714008869603276
0.22419379651546478 0.4296659827232361 0.050416648387908936
-0.10623575747013092 -0.5330920815467834 -0.08915522694587708
-0.23131640255451202 0.4039674699306488 -0.00391388637945056
-0.06026662513613701 0.0744621753692627 -0.13963495194911957
-0.08410090953111649 -0.1450861245393753 -0.13963495194911957
-0.22308170795440674 -0.05459984391927719 0.04678361862897873
-0.12444041669368744 -0.0834740400314331 0.13558527827262878
-0.06898205727338791 0.3024026155471802 -0.13963495194911957
-0.1157170832157135 -0.29549846053123474 0.1372520476579666
-0.03298880532383919 0.08371458947658539 0.13952915370464325
0.0502144955098629 -0.3848695158958435 -0.13053007423877716
-0.095100037753582 -0.18653105199337006 0.13935860991477966
-0.03677305206656456 0.2490822672843933 -0.13963495194911957
-0.08652819693088531 -0.8789158463478088 -0.03020414337515831
0.04469950124621391 -0.0939578041434288 0.13952915370464325
-0.22718460857868195 -0.29582032561302185 -0.034120235592126846
-0.11177738010883331 0.1875135749578476 -0.1380465179681778
0.19601912796497345 0.4423489272594452 0.07247286289930344
0.13369429111480713 0.4867863655090332 -0.019851410761475563
-0.09675371646881104 -0.5121600031852722 -0.09949062019586563
0.08268295228481293 -0.5384542942047119 -0.04419321194291115
-0.21929070353507996 -0.10456474125385284 0.05667484924197197
-0.0381026417016983 -0.6823832392692566 0.08415742218494415
0.19785696268081665 -0.13107140362262726 0.09331531077623367
0.10372063517570496 0.5388559699058533 0.04182170704007149
0.15046274662017822 0.09654849767684937 -0.12753154337406158
-0.08004942536354065 0.12486002594232559 0.13952915370464325
-0.020990757271647453 0.10093659162521362 0.13952915370464325
0.14071448147296906 0.6993312239646912 -0.012831214815378189
0.23301106691360474 0.15977784991264343 -0.013105642050504684
0.07262236624956131 -0.445122092962265 0.11973388493061066
0.0830489918589592 -0.9374977350234985 0.04380309581756592
-0.09765870124101639 -0.11374302953481674 -0.13937026262283325
0.19543419778347015 -0.16613870859146118 -0.09594147652387619
-0.22482559084892273 -0.10119762271642685 -0.04222457483410835
-0.18543311953544617 0.33736273646354675 -0.10346867889165878
-0.13571061193943024 -0.41737765073776245 0.02715448848903179
0.035704683512449265 -0.5920863747596741 -0.08627400547266006
-0.014235857874155045 -0.5347254872322083 0.10219354927539825
-0.12192251533269882 -0.5347254872322083 -0.001984424889087677
0.1429094523191452 -0.10085263103246689 0.13065218925476074
-0.2304762750864029 -0.13069406151771545 -0.014159318059682846
0.13774801790714264 -0.3020887076854706 0.09578143805265427
0.1847023367881775 0.2290009707212448 -0.10597722232341766
0.05878717079758644 -0.4347922205924988 0.1268634796142578
0.0651020035147667 -0.9999989867210388 -0.056340985000133514
0.22683386504650116 0.22856400907039642 -0.042729929089546204
0.15776832401752472 0.6688492298126221 0.006263782270252705
0.1974361687898636 0.3174971640110016 0.0935540646314621
-0.05532511696219444 0.37461087107658386 -0.13963495194911957
-0.09527364373207092 -0.5347254872322083 -0.030882377177476883
0.02580033428966999 0.5173120498657227 0.04182170704007149
0.020104512572288513 0.580833911895752 0.027863504365086555
0.20088748633861542 0.20919743180274963 -0.08994954824447632
-0.1377529501914978 -0.4982838034629822 -0.01255382876843214
-0.011898514814674854 0.0870470479130745 0.13952915370464325
0.22970175743103027 -0.27547794580459595 0.03300398215651512
0.22757087647914886 -0.19471478462219238 0.040740348398685455
-0.059078022837638855 -0.8745757341384888 -0.07079779356718063
-0.027055783197283745 -0.4113040268421173 -0.13661561906337738
0.20404359698295593 -0.1746690422296524 -0.0859779343008995
-0.1658775359392166 0.26995015144348145 -0.11833006888628006
-0.05864914134144783 0.35486313700675964 -0.13963495194911957
-0.11514689773321152 0.2299189567565918 -0.13749133050441742
0.11851029098033905 -0.22983771562576294 0.13713592290878296
-0.20764395594596863 0.3394567668437958 0.07747799158096313
-0.08437539637088776 -0.8917884826660156 -0.0359174981713295
-0.04320215433835983 0.3971386253833771 -0.13963495194911957
0.1883692890405655 0.26137760281562805 -0.1029302328824997
-0.17740799486637115 -0.2617506980895996 -0.11025272309780121
-0.032360970973968506 -0.19029299914836884 0.13952915370464325
0.16716861724853516 0.12876246869564056 0.11870425194501877
0.1399795562028885 -0.5020975470542908 -0.01375629473477602
-0.19135761260986328 0.4423489272594452 -0.010622450150549412
-0.20334582030773163 0.4423489272594452 0.06377097219228745
0.09350641816854477 -0.916509211063385 -0.01048116385936737
-0.11818552017211914 0.5364811420440674 -0.01338887121528387
0.1926334798336029 0.4423489272594452 0.042299702763557434
0.13823342323303223 -0.3020887076854706 0.03166164457798004
-0.07422517985105515 -0.9684748649597168 0.05442485958337784
0.13425377011299133 0.527376115322113 0.04182170704007149
0.13804315030574799 0.5916162133216858 0.04182170704007149
-0.05763215199112892 0.4207454025745392 -0.13963495194911957
0.005879550240933895 -0.7331100106239319 0.09279590100049973
0.06493890285491943 -0.9163433909416199 -0.06758511066436768
0.11806986480951309 -0.3145061433315277 -0.07591485977172852
0.05592457950115204 0.4423489272594452 -0.11649900674819946
0.22313395142555237 -0.28318867087364197 0.05284791812300682
0.09395506978034973 -0.8811848759651184 -0.0030367604922503233
0.011943439953029156 -0.42609110474586487 -0.13905906677246094
0.02150443196296692 0.07921446114778519 0.13952915370464325
0.1274513304233551 0.13727377355098724 -0.13539442420005798
-0.22937355935573578 0.0009267356945201755 0.02322979085147381
-0.06087527424097061 0.03793931379914284 0.13952915370464325
0.13095997273921967 -0.3020887076854706 -0.07275768369436264
0.11728212982416153 0.5605154037475586 -0.016523685306310654
-0.17162370681762695 -0.006776782218366861 0.1143878698348999
-0.20928218960762024 0.05627942830324173 -0.07532274723052979
0.21933864057064056 0.18300525844097137 -0.06101186200976372
-0.14304012060165405 0.4491042494773865 0.012202359735965729
-0.0902925506234169 -0.6277046203613281 0.01693294569849968
0.13794007897377014 0.06164442375302315 0.13237036764621735
-0.13823801279067993 0.5311533212661743 -0.01307627186179161
0.08297528326511383 -0.5347254872322083 -0.07650532573461533
-0.018519975244998932 -0.9999989867210388 -0.05427337437868118
-0.09729811549186707 -0.25670257210731506 -0.13937820494174957
-0.0052237724885344505 -0.1439545601606369 -0.13963495194911957
0.12405528128147125 0.1769866943359375 0.13621850311756134
0.16047188639640808 0.6185717582702637 0.03471403568983078
-0.022224832326173782 0.5305947065353394 0.027863504365086555
-0.13110819458961487 -0.3873315751552582 -0.04452473670244217
0.015987973660230637 -0.9458626508712769 -0.09181421995162964
-0.1824617087841034 0.08137469738721848 0.1060282289981842
0.010557002387940884 -0.20282475650310516 0.13952915370464325
-0.0025510285049676895 0.5442675352096558 -0.027969321236014366
0.2286957949399948 0.43633076548576355 -0.036896124482154846
-0.11061904579401016 -0.25503456592559814 0.13811473548412323
-0.173833429813385 0.14727027714252472 -0.11299587786197662
0.003311418229714036 -0.5344974398612976 -0.13950790464878082
-0.143889382481575 -0.04114902392029762 0.12926381826400757
0.13135550916194916 0.6499709486961365 0.027863504365086555
0.03493303060531616 -0.7357649803161621 0.08642908930778503
-0.1292581409215927 -0.5347254872322083 0.03638198971748352
0.0939311757683754 -0.6212838292121887 -0.0037963183131068945
-0.08190523833036423 0.01653314009308815 -0.13963495194911957
0.07872831076383591 -0.3484245538711548 0.11584092676639557
0.19167079031467438 0.1257495880126953 -0.09960353374481201
0.11049100011587143 -0.4101763069629669 0.08641960471868515
0.08664301782846451 0.576326847076416 -0.0419275239109993
0.060106247663497925 0.12403746694326401 0.13952915370464325
-0.08151825517416 0.4423489272594452 -0.022957496345043182
-2.8776070394087583e-05 0.4423489272594452 0.08226172626018524
-0.18482500314712524 -0.0483655110001564 -0.10411807149648666
0.23159317672252655 -0.203057199716568 -0.02396143600344658
0.19670921564102173 -0.2582818865776062 -0.0947365015745163
0.10196339339017868 -0.12042897194623947 -0.1392379254102707
-0.21830932796001434 0.20645181834697723 -0.05903121083974838
0.08346789330244064 0.6175821423530579 0.04182170704007149
0.06508518010377884 0.4423489272594452 -0.06431196630001068
0.17708154022693634 -0.17621716856956482 -0.11215611547231674
-0.21552957594394684 0.12851807475090027 -0.06479944288730621
-0.12130473554134369 -0.33416223526000977 0.06678952276706696
-0.1564113199710846 0.4423489272594452 0.04486117511987686
-0.09147153794765472 -0.665220320224762 0.0051362235099077225
-0.13674849271774292 -0.4788432717323303 0.02053452655673027
0.06516604125499725 -0.31394171714782715 -0.12404114007949829
-0.2080690562725067 -0.05426996201276779 -0.07729460299015045
-0.2078423649072647 -0.0369131900370121 -0.07770225405693054
0.22653630375862122 0.43961602449417114 -0.04426262900233269
-0.01397532969713211 0.07603155076503754 0.13952915370464325
-0.04509108141064644 0.5620682239532471 0.027863504365086555
0.00419158861041069 -0.6071042418479919 0.09287607669830322
-0.026945287361741066 0.5605297684669495 0.027863504365086555
-0.08395043760538101 -0.4021027386188507 -0.11064352095127106
0.012198037467896938 -0.04397311061620712 0.13952915370464325
0.09378530830144882 -0.7926594614982605 0.005915028043091297
-0.01607711799442768 -0.6191734075546265 -0.09140819311141968
-0.14298732578754425 0.010418375954031944 -0.12974613904953003
0.1645093858242035 0.4423489272594452 0.08921294659376144
-0.1226668506860733 0.14750069379806519 0.13601097464561462
-0.17361634969711304 0.36111190915107727 -0.11307492107152939
0.05241036042571068 -0.5499125719070435 0.07747272402048111
-0.13745930790901184 -0.4886166751384735 -0.016117526218295097
0.04906036704778671 0.6113494038581848 0.04182170704007149
0.18612700700759888 0.39388802647590637 0.10495193302631378
-0.2014801800251007 0.07544257491827011 0.0860510915517807
0.09604732692241669 -0.25863176584243774 0.13943924009799957
-0.21808651089668274 -0.0035288450308144093 0.05940229073166847
-0.0283576138317585 -0.4581293761730194 -0.13640093803405762
0.029842551797628403 -0.14890575408935547 -0.13963495194911957
-0.13055568933486938 -0.3845575451850891 -0.046307843178510666
0.022977588698267937 -0.9999989867210388 -0.009671714156866074
0.2202776074409485 -0.19067075848579407 -0.05981108918786049
0.10829436033964157 -0.17591045796871185 -0.13870452344417572
0.17588204145431519 -0.3020887076854706 -0.010487839579582214
-0.003422698937356472 -0.7191963195800781 -0.0928826779127121
0.20287013053894043 0.08085012435913086 -0.0872238501906395
-0.025277400389313698 -0.3830251097679138 0.1368531435728073
-0.15470623970031738 0.4953555762767792 0.005020595621317625
0.13230635225772858 -0.40101367235183716 -0.04735012352466583
-0.0892891213297844 -0.8504849076271057 -0.021617038175463676
0.09342142939567566 -0.9999989867210388 -0.003698937827721238
-0.1470295935869217 -0.27956002950668335 -0.12823443114757538
0.22115729749202728 -0.07016852498054504 -0.057739369571208954
-0.04303879290819168 -0.24432042241096497 -0.13963495194911957
-0.0992438793182373 -0.3292946517467499 -0.09697558730840683
-0.136155903339386 -0.4323744475841522 -0.024853963404893875
0.08902134746313095 -0.95834881067276 0.03038816526532173
-0.06344406306743622 -0.8605443835258484 0.0667017325758934
0.08164029568433762 -0.03399303928017616 0.13952915370464325
0.04990968480706215 0.4423489272594452 -0.0649997740983963
0.03266463056206703 0.5568738579750061 -0.0419275239109993
0.13979050517082214 0.5604882836341858 -0.013755186460912228
-0.042000286281108856 0.45902252197265625 0.027863504365086555
-0.0007997727952897549 0.7050856947898865 -0.027969321236014366
0.05620662495493889 0.38835635781288147 0.13952915370464325
-0.06286115199327469 -0.663291335105896 0.06734928488731384
0.07465875148773193 0.11452445387840271 -0.13963495194911957
-0.022836903110146523 0.3376718759536743 -0.13963495194911957
0.07713834941387177 0.44247153401374817 0.027863504365086555
-0.04253876581788063 -0.9580903649330139 0.08211351931095123
-0.03527871519327164 0.542406439781189 0.04182170704007149
-0.2239983230829239 0.033751554787158966 -0.04470875486731529
0.05325246974825859 -0.012932296842336655 -0.13963495194911957
0.22610622644424438 0.4253079295158386 0.04467877373099327
0.1521988809108734 -0.3020887076854706 -0.021706707775592804
0.016772551462054253 -0.46602925658226013 0.1385202258825302
-0.08772548288106918 -0.6742163300514221 -0.026800652965903282
0.23309558629989624 -0.2816455662250519 -0.011565521359443665
0.12311943620443344 -0.3944922387599945 0.06751057505607605
0.09120365977287292 -0.6214296817779541 0.022675735875964165
0.0019248059252277017 0.6352824568748474 -0.027969321236014366
0.10260093957185745 0.08338779211044312 -0.13926652073860168
-0.1754547357559204 0.14933250844478607 0.11141270399093628
0.02986978180706501 -0.29024237394332886 -0.13963495194911957
0.10327610373497009 0.52897047996521 -0.041670121252536774
-0.019644856452941895 0.20868410170078278 0.13952915370464325
0.07959841191768646 -0.3277954161167145 -0.11534513533115387
0.08956881612539291 -0.6816256046295166 0.028837423771619797
0.041172925382852554 0.4609469175338745 -0.027969321236014366
0.17330649495124817 -0.2248602658510208 0.11474519222974777
0.014396804384887218 0.59505695104599 0.027863504365086555
0.03416003659367561 -0.5439214706420898 -0.08692942559719086
-0.00034643764956854284 0.6305335164070129 0.027863504365086555
-0.06265278160572052 0.4423489272594452 0.1316869705915451
0.2101723849773407 0.29867735505104065 -0.07761543244123459
0.08306185156106949 -0.5802316665649414 0.04377613589167595
0.0600489042699337 0.5971412062644958 -0.0419275239109993
-0.08119416981935501 0.3807431161403656 0.13952915370464325
0.09052690863609314 -0.6865469813346863 0.025100411847233772
-0.20047786831855774 0.13411065936088562 -0.08733589947223663
0.23181219398975372 -0.14902006089687347 0.022988831624388695
-0.11298784613609314 0.6080408096313477 0.027863504365086555
0.024203848093748093 0.4423489272594452 -0.020203212276101112
-0.09522753208875656 0.6031971573829651 -0.027969321236014366
0.18236246705055237 -0.3020887076854706 0.10146811604499817
-0.02526400238275528 -0.7815592885017395 0.08891770988702774
-0.11612164974212646 -0.36006277799606323 -0.07571504265069962
0.004895418416708708 -0.4323798418045044 0.13931915163993835
0.17445525527000427 -0.23340263962745667 0.1139504685997963
-0.04256078600883484 -0.1858697384595871 0.13952915370464325
-0.06070685014128685 -0.5780990719795227 -0.0695166066288948
-0.1475248783826828 -0.2639180123806 -0.12792211771011353
-0.100668765604496 0.2974729537963867 -0.13900765776634216
0.20022255182266235 0.4423489272594452 -0.061623331159353256
-0.08126120269298553 0.5435822606086731 0.04182170704007149
-0.07130102068185806 0.34001338481903076 -0.13963495194911957
-0.1144556999206543 -0.33692121505737305 -0.07818160951137543
-0.037716563791036606 -0.9999989867210388 -0.007385470438748598
-0.21926432847976685 -0.18684937059879303 0.056947335600852966
0.05679565668106079 0.3904300332069397 -0.13963495194911957
-0.11708077788352966 0.13176976144313812 0.1371457874774933
-0.10282544046640396 0.024275140836834908 -0.13919281959533691
0.19383269548416138 -0.14033950865268707 -0.09744329750537872
-0.2296590954065323 0.2202545702457428 -0.021780647337436676
0.09421305358409882 0.31392332911491394 -0.1396322101354599
0.11785296350717545 -0.37592020630836487 -0.07645584642887115
-0.043870724737644196 -0.07341259717941284 -0.13963495194911957
-0.027596302330493927 0.6301952600479126 -0.0419275239109993
0.06545668095350266 0.5544268488883972 0.027863504365086555
0.19809870421886444 -0.3020887076854706 -0.02246132679283619
-0.13360710442066193 0.35417625308036804 0.1330326646566391
-0.04508460313081741 -0.5347254872322083 0.0845092311501503
0.10841158032417297 -0.35718557238578796 -0.08913547545671463
0.07865986973047256 -0.33958107233047485 0.11572875827550888
-0.09044045954942703 -0.6919551491737366 -0.015896353870630264
0.0678354874253273 0.13464847207069397 0.13952915370464325
-0.2203720062971115 -0.033490825444459915 0.054103605449199677
-0.13079038262367249 0.2819683849811554 0.13379712402820587
0.20771242678165436 -0.09634026885032654 -0.08106453716754913
-0.1591702103614807 -0.20764732360839844 0.12211550772190094
0.23146165907382965 0.4379013478755951 0.024909021332859993
-0.14368338882923126 0.3383231461048126 -0.1295972764492035
-0.08085354417562485 -0.382656991481781 -0.11291739344596863
-0.16030478477478027 0.17089152336120605 0.12135663628578186
0.10553253442049026 0.4423489272594452 0.10063952952623367
0.015716392546892166 0.604320228099823 0.027863504365086555
-0.11606179177761078 -0.5276538729667664 -0.0757383331656456
0.09139322489500046 -0.3538227379322052 0.10634402185678482
-0.22915396094322205 0.0863848328590393 0.02412411756813526
-0.044369980692863464 -0.602808952331543 -0.08112643659114838
0.061575546860694885 -0.0406714491546154 -0.13963495194911957
0.16815268993377686 0.4423489272594452 -0.007185108028352261
0.1434938609600067 -0.3020887076854706 -0.05941338092088699
-0.0007207281305454671 0.1930273026227951 -0.13963495194911957
-0.23129825294017792 -0.13429458439350128 -0.0011342595098540187
-0.09127245843410492 -0.630916953086853 0.008201704360544682
-0.12913726270198822 -0.34635284543037415 -0.04997658357024193
-0.08152569085359573 0.01129607018083334 -0.13963495194911957
-0.04207153990864754 -0.5842007398605347 -0.08241157978773117
0.02302573062479496 0.3123514950275421 0.13952915370464325
-0.15830574929714203 -0.18334494531154633 0.12253942340612411
0.1320464164018631 0.4423489272594452 0.04249149560928345
0.1111609935760498 0.5081048011779785 -0.02264481782913208
0.04899180680513382 0.12384102493524551 -0.13963495194911957
-0.03416644036769867 0.5920642614364624 0.027863504365086555
-0.08178777247667313 0.4423489272594452 -0.11258238554000854
-0.09160983562469482 -0.16835318505764008 0.13952915370464325
-0.04487811401486397 -0.5823845863342285 0.08064929395914078
-0.12334553152322769 0.5721749067306519 -0.027968749403953552
0.032782334834337234 -0.9999989867210388 0.043673835694789886
-0.037478189915418625 -0.8149182796478271 -0.08459357917308807
-0.032382406294345856 0.4423489272594452 -0.04724501445889473
-0.04487511143088341 -0.11458472162485123 0.13952915370464325
-0.09037365764379501 -0.8338702321052551 0.016490405425429344
-0.014687728136777878 -0.9999989867210388 -0.05658361315727234
-0.06754518300294876 0.043884992599487305 -0.13963495194911957
-0.027324939146637917 0.2401086688041687 -0.13963495194911957
